-5.525974,18.585006,-1.680078
-6.855126,18.585006,-0.108783
-8.221232,18.585006,1.462512
-9.511388,18.585006,3.033807
-10.590274,18.585006,4.605102
-11.300159,18.585006,6.176397
-11.460892,18.585006,7.747692
-10.869911,18.585006,9.318987
-1.220273,19.678242,-1.680078
-2.815412,19.678242,-0.108783
-4.446412,19.678242,1.462512
-5.994788,19.678242,3.033807
-7.319639,19.678242,4.605102
-8.257652,19.678242,6.176397
-8.623097,19.678242,7.747692
-8.207830,19.678242,9.318987
-1.516574,20.771477,3.033807
-3.135424,20.771477,4.605102
-4.350827,20.771477,6.176397
-4.971471,20.771477,7.747692
-11.350593,-17.443873,-12.679142
-15.365467,-17.443873,-11.107847
-17.623148,-17.443873,-9.536552
-18.735377,-17.443873,-7.965258
-19.162470,-17.443873,-6.393963
-19.233230,-17.443873,-4.822668
-19.164862,-17.443873,-3.251373
-19.082896,-17.443873,-1.680078
-19.041099,-17.443873,-0.108783
-19.041392,-17.443873,1.462512
-19.053768,-17.443873,3.033807
-19.036209,-17.443873,4.605102
-18.954604,-17.443873,6.176397
-18.802661,-17.443873,7.747692
-18.621828,-17.443873,9.318987
-18.521211,-17.443873,10.890281
-18.697484,-17.443873,12.461576
-14.288937,-16.474769,-12.679142
-17.854771,-16.474769,-11.107847
-19.767308,-16.474769,-9.536552
-20.619868,-16.474769,-7.965258
-20.856288,-16.474769,-6.393963
-20.790843,-16.474769,-4.822668
-20.628162,-16.474769,-3.251373
-20.483143,-16.474769,-1.680078
-20.400874,-16.474769,-0.108783
-20.376545,-16.474769,1.462512
-20.375365,-16.474769,3.033807
-20.352484,-16.474769,4.605102
-20.272904,-16.474769,6.176397
-20.131398,-16.474769,7.747692
-19.972429,-16.474769,9.318987
-19.910062,-16.474769,10.890281
-20.147885,-16.474769,12.461576
-16.757186,-15.505665,-12.679142
-19.909022,-15.505665,-11.107847
-21.506299,-15.505665,-9.536552
-22.124399,-15.505665,-7.965258
-22.191173,-15.505665,-6.393963
-22.006859,-15.505665,-4.822668
-21.763995,-15.505665,-3.251373
-21.567341,-15.505665,-1.680078
-21.453792,-15.505665,-0.108783
-21.412295,-15.505665,1.462512
-21.403768,-15.505665,3.033807
-21.381015,-15.505665,4.605102
-21.308643,-15.505665,6.176397
-21.182979,-15.505665,7.747692
-21.051987,-15.505665,9.318987
-21.035185,-15.505665,10.890281
-18.807383,-14.536561,-12.679142
-21.579222,-14.536561,-11.107847
-22.890185,-14.536561,-9.536552
-23.298207,-14.536561,-7.965258
-23.215641,-14.536561,-6.393963
-22.929176,-14.536561,-4.822668
-22.619751,-14.536561,-3.251373
-22.382474,-14.536561,-1.680078
-22.246538,-14.536561,-0.108783
-22.195139,-14.536561,1.462512
-22.185389,-14.536561,3.033807
-22.168237,-14.536561,4.605102
-22.108384,-14.536561,6.176397
-22.004200,-14.536561,7.747692
-21.907641,-14.536561,9.318987
-21.944165,-14.536561,10.890281
-20.489751,-13.567457,-12.679142
-22.914416,-13.567457,-11.107847
-23.966939,-13.567457,-9.536552
-24.188298,-13.567457,-7.965258
-23.975838,-13.567457,-6.393963
-23.603188,-13.567457,-4.822668
-23.240176,-13.567457,-3.251373
-22.972749,-13.567457,-1.680078
-22.822888,-13.567457,-0.108783
-22.768523,-13.567457,1.462512
-22.763454,-13.567457,3.033807
-22.757262,-13.567457,4.605102
-22.715232,-13.567457,6.176397
-22.638266,-13.567457,7.747692
-22.582801,-13.567457,9.318987
-22.680724,-13.567457,10.890281
-21.852300,-12.598353,-12.679142
-23.961298,-12.598353,-11.107847
-24.782047,-12.598353,-9.536552
-24.839056,-12.598353,-7.965258
-24.515152,-12.598353,-6.393963
-24.071393,-12.598353,-4.822668
-23.666987,-12.598353,-3.251373
-23.379207,-12.598353,-1.680078
-23.223311,-12.598353,-0.108783
-23.172455,-12.598353,1.462512
-23.177612,-12.598353,3.033807
-23.187488,-12.598353,4.605102
-23.168441,-12.598353,6.176397
-23.124392,-12.598353,7.747692
-23.116750,-12.598353,9.318987
-23.284321,-12.598353,10.890281
-22.940428,-11.629249,-12.679142
-24.763816,-11.629249,-11.107847
-25.378112,-11.629249,-9.536552
-25.291847,-11.629249,-7.965258
-24.873817,-11.629249,-6.393963
-24.373000,-11.629249,-4.822668
-23.938472,-11.629249,-3.251373
-23.639323,-11.629249,-1.680078
-23.484576,-11.629249,-0.108783
-23.443102,-11.629249,1.462512
-23.463539,-11.629249,3.033807
-23.494205,-11.629249,4.605102
-23.503018,-11.629249,6.176397
-23.497412,-11.629249,7.747692
-23.544254,-11.629249,9.318987
-23.789759,-11.629249,10.890281
-23.796536,-10.660145,-12.679142
-25.362782,-10.660145,-11.107847
-25.794464,-10.660145,-9.536552
-25.584624,-10.660145,-7.965258
-25.088519,-10.660145,-6.393963
-24.543533,-10.660145,-4.822668
-24.089099,-10.660145,-3.251373
-23.786615,-10.660145,-1.680078
-23.639359,-10.660145,-0.108783
-23.612405,-10.660145,1.462512
-23.652544,-10.660145,3.033807
-23.708197,-10.660145,4.605102
-23.749332,-10.660145,6.176397
-23.787384,-10.660145,7.747692
-23.895167,-10.660145,9.318987
-24.226795,-10.660145,10.890281
-21.425428,-9.691040,-14.250437
-24.459626,-9.691040,-12.679142
-25.795473,-9.691040,-11.107847
-26.066763,-9.691040,-9.536552
-25.751538,-9.691040,-7.965258
-25.192001,-9.691040,-6.393963
-24.614436,-9.691040,-4.822668
-24.149122,-9.691040,-3.251373
-23.850252,-9.691040,-1.680078
-23.715848,-9.691040,-0.108783
-23.707679,-9.691040,1.462512
-23.771177,-9.691040,3.033807
-23.855354,-9.691040,4.605102
-23.932719,-9.691040,6.176397
-24.019196,-9.691040,7.747692
-24.194037,-9.691040,9.318987
-24.619742,-9.691040,10.890281
-22.218278,-8.721936,-14.250437
-24.964911,-8.721936,-12.679142
-26.095243,-8.721936,-11.107847
-26.226608,-8.721936,-9.536552
-25.822537,-8.721936,-7.965258
-25.212672,-8.721936,-6.393963
-24.612683,-8.721936,-4.822668
-24.144185,-8.721936,-3.251373
-23.854655,-8.721936,-1.680078
-23.737350,-8.721936,-0.108783
-23.751221,-8.721936,1.462512
-23.840831,-8.721936,3.033807
-23.956274,-8.721936,4.605102
-24.073087,-8.721936,6.176397
-24.212173,-8.721936,7.747692
-24.459711,-8.721936,9.318987
-24.987078,-8.721936,10.890281
-22.856668,-7.752832,-14.250437
-25.343420,-7.752832,-12.679142
-26.291123,-7.752832,-11.107847
-26.301140,-7.752832,-9.536552
-25.822980,-7.752832,-7.965258
-25.174212,-7.752832,-6.393963
-24.560382,-7.752832,-4.822668
-24.094931,-7.752832,-3.251373
-23.819110,-7.752832,-1.680078
-23.721898,-7.752832,-0.108783
-23.759918,-7.752832,1.462512
-23.877355,-7.752832,3.033807
-24.025871,-7.752832,4.605102
-24.184524,-7.752832,6.176397
-24.379682,-7.752832,7.747692
-24.704942,-7.752832,9.318987
-25.341047,-7.752832,10.890281
-23.369289,-6.783728,-14.250437
-25.621605,-6.783728,-12.679142
-26.407431,-6.783728,-11.107847
-26.312649,-6.783728,-9.536552
-25.773235,-6.783728,-7.965258
-25.095175,-6.783728,-6.393963
-24.474381,-6.783728,-4.822668
-24.016607,-6.783728,-3.251373
-23.757367,-6.783728,-1.680078
-23.681854,-6.783728,-0.108783
-23.744851,-6.783728,1.462512
-23.890653,-6.783728,3.033807
-24.072981,-6.783728,4.605102
-24.274901,-6.783728,6.176397
-24.528739,-6.783728,7.747692
-24.935997,-6.783728,9.318987
-25.687273,-6.783728,10.890281
-25.820946,-5.814624,-12.679142
-26.463377,-5.814624,-11.107847
-26.278182,-5.814624,-9.536552
-25.688293,-5.814624,-7.965258
-24.988602,-5.814624,-6.393963
-24.365874,-5.814624,-4.822668
-23.918668,-5.814624,-3.251373
-23.677252,-5.814624,-1.680078
-23.623517,-5.814624,-0.108783
-23.710900,-5.814624,1.462512
-23.884293,-5.814624,3.033807
-24.099966,-5.814624,4.605102
-24.345483,-5.814624,6.176397
-24.659615,-5.814624,7.747692
-25.152260,-5.814624,9.318987
-26.024360,-5.814624,10.890281
-24.107421,-4.845520,-14.250437
-25.957558,-4.845520,-12.679142
-26.472671,-4.845520,-11.107847
-26.209148,-4.845520,-9.536552
-25.577368,-4.845520,-7.965258
-24.861618,-4.845520,-6.393963
-24.240007,-4.845520,-4.822668
-23.804388,-4.845520,-3.251373
-23.580268,-4.845520,-1.680078
-23.546731,-4.845520,-0.108783
-23.656352,-4.845520,1.462512
-23.855114,-4.845520,3.033807
-24.102324,-4.845520,4.605102
-24.390531,-4.845520,6.176397
-24.765442,-4.845520,7.747692
-25.345840,-4.845520,9.318987
-26.343500,-4.845520,10.890281
-24.364566,-3.876416,-14.250437
-26.041796,-3.876416,-12.679142
-26.443123,-3.876416,-11.107847
-26.110922,-3.876416,-9.536552
-25.443506,-3.876416,-7.965258
-24.715047,-3.876416,-6.393963
-24.095487,-3.876416,-4.822668
-23.670459,-3.876416,-3.251373
-23.461205,-3.876416,-1.680078
-23.444488,-3.876416,-0.108783
-23.572510,-3.876416,1.462512
-23.792833,-3.876416,3.033807
-24.068290,-3.876416,4.605102
-24.396908,-3.876416,6.176397
-24.831818,-3.876416,7.747692
-25.501176,-3.876416,9.318987
-24.558419,-2.907312,-14.250437
-26.077863,-2.907312,-12.679142
-26.376258,-2.907312,-11.107847
-25.982455,-2.907312,-9.536552
-25.283191,-2.907312,-7.965258
-24.543011,-2.907312,-6.393963
-23.924181,-2.907312,-4.822668
-23.506606,-2.907312,-3.251373
-23.307746,-2.907312,-1.680078
-23.302534,-2.907312,-0.108783
-23.443291,-2.907312,1.462512
-23.679646,-2.907312,3.033807
-23.978449,-2.907312,4.605102
-24.343689,-2.907312,6.176397
-24.836414,-2.907312,7.747692
-25.594643,-2.907312,9.318987
-24.689558,-1.938208,-14.250437
-26.063414,-1.938208,-12.679142
-26.266915,-1.938208,-11.107847
-25.815876,-1.938208,-9.536552
-25.085950,-1.938208,-7.965258
-24.332542,-1.938208,-6.393963
-23.710732,-1.938208,-4.822668
-23.295184,-1.938208,-3.251373
-23.100069,-1.938208,-1.680078
-23.098978,-1.938208,-0.108783
-23.244840,-1.938208,1.462512
-23.489840,-1.938208,3.033807
-23.805333,-1.938208,4.605102
-24.201765,-1.938208,6.176397
-24.748583,-1.938208,7.747692
-25.594161,-1.938208,9.318987
-24.751757,-0.969104,-14.250437
-25.989165,-0.969104,-12.679142
-26.102857,-0.969104,-11.107847
-25.596103,-0.969104,-9.536552
-24.833959,-0.969104,-7.965258
-24.063184,-0.969104,-6.393963
-23.432156,-0.969104,-4.822668
-23.010792,-0.969104,-3.251373
-22.810459,-0.969104,-1.680078
-22.803898,-0.969104,-0.108783
-22.945133,-0.969104,1.462512
-23.189397,-0.969104,3.033807
-23.513038,-0.969104,4.605102
-23.933445,-0.969104,6.176397
-24.528960,-0.969104,7.747692
-25.458796,-0.969104,9.318987
-24.731591,0.000000,-14.250437
-25.838493,0.000000,-12.679142
-25.864373,0.000000,-11.107847
-25.300444,0.000000,-9.536552
-24.501652,0.000000,-7.965258
-23.706600,0.000000,-6.393963
-23.057455,0.000000,-4.822668
-22.619872,0.000000,-3.251373
-22.402909,0.000000,-1.680078
-22.378942,0.000000,-0.108783
-22.503583,0.000000,1.462512
-22.735597,0.000000,3.033807
-23.056819,0.000000,4.605102
-23.492070,0.000000,6.176397
-24.129073,0.000000,7.747692
-25.138373,0.000000,9.318987
-16.594705,-19.554101,-12.679142
-16.594705,-19.593653,-11.107847
-16.594705,-19.626717,-9.536552
-16.594705,-19.653292,-7.965258
-16.594705,-19.673378,-6.393963
-16.594705,-19.686976,-4.822668
-16.594705,-19.694085,-3.251373
-16.594705,-19.694705,-1.680078
-16.594705,-19.688836,-0.108783
-16.594705,-19.676479,1.462512
-16.594705,-19.657633,3.033807
-16.594705,-19.632299,4.605102
-16.594705,-19.600476,6.176397
-16.594705,-19.562164,7.747692
-16.594705,-19.517363,9.318987
-15.674559,-19.737164,-12.679142
-15.674559,-19.762004,-11.107847
-15.674559,-19.780356,-9.536552
-15.674559,-19.792219,-7.965258
-15.674559,-19.797593,-6.393963
-15.674559,-19.796479,-4.822668
-15.674559,-19.788876,-3.251373
-15.674559,-19.774784,-1.680078
-15.674559,-19.754204,-0.108783
-15.674559,-19.727134,1.462512
-15.674559,-19.693577,3.033807
-15.674559,-19.653530,4.605102
-15.674559,-19.606995,6.176397
-15.674559,-19.553971,7.747692
-15.674559,-19.494458,9.318987
-15.674559,-19.428457,10.890281
-14.754412,-19.897664,-12.679142
-14.754412,-19.907792,-11.107847
-14.754412,-19.911432,-9.536552
-14.754412,-19.908583,-7.965258
-14.754412,-19.899245,-6.393963
-14.754412,-19.883419,-4.822668
-14.754412,-19.861104,-3.251373
-14.754412,-19.832300,-1.680078
-14.754412,-19.797008,-0.108783
-14.754412,-19.755227,1.462512
-14.754412,-19.706957,3.033807
-14.754412,-19.652198,4.605102
-14.754412,-19.590951,6.176397
-14.754412,-19.523215,7.747692
-14.754412,-19.448991,9.318987
-14.754412,-19.368278,10.890281
-13.834266,-20.035601,-12.679142
-13.834266,-20.031017,-11.107847
-13.834266,-20.019945,-9.536552
-13.834266,-20.002384,-7.965258
-13.834266,-19.978334,-6.393963
-13.834266,-19.947796,-4.822668
-13.834266,-19.910769,-3.251373
-13.834266,-19.867253,-1.680078
-13.834266,-19.817249,-0.108783
-13.834266,-19.760756,1.462512
-13.834266,-19.697774,3.033807
-13.834266,-19.628304,4.605102
-13.834266,-19.552344,6.176397
-13.834266,-19.469897,7.747692
-13.834266,-19.380960,9.318987
-12.914119,-20.150975,-12.679142
-12.914119,-20.131679,-11.107847
-12.914119,-20.105895,-9.536552
-12.914119,-20.073622,-7.965258
-12.914119,-20.034860,-6.393963
-12.914119,-19.989610,-4.822668
-12.914119,-19.937871,-3.251373
-12.914119,-19.879643,-1.680078
-12.914119,-19.814927,-0.108783
-12.914119,-19.743722,1.462512
-12.914119,-19.666028,3.033807
-12.914119,-19.581846,4.605102
-12.914119,-19.491175,6.176397
-12.914119,-19.394015,7.747692
-12.914119,-19.290367,9.318987
-11.993973,-20.243785,-12.679142
-11.993973,-20.209778,-11.107847
-11.993973,-20.169282,-9.536552
-11.993973,-20.122297,-7.965258
-11.993973,-20.068823,-6.393963
-11.993973,-20.008861,-4.822668
-11.993973,-19.942410,-3.251373
-11.993973,-19.869470,-1.680078
-11.993973,-19.790042,-0.108783
-11.993973,-19.704125,1.462512
-11.993973,-19.611719,3.033807
-11.993973,-19.512825,4.605102
-11.993973,-19.407442,6.176397
-11.993973,-19.295570,7.747692
-11.993973,-19.177210,9.318987
-11.073826,-20.314033,-12.679142
-11.073826,-20.265314,-11.107847
-11.073826,-20.210106,-9.536552
-11.073826,-20.148409,-7.965258
-11.073826,-20.080223,-6.393963
-11.073826,-20.005549,-4.822668
-11.073826,-19.924386,-3.251373
-11.073826,-19.836734,-1.680078
-11.073826,-19.742594,-0.108783
-11.073826,-19.641965,1.462512
-11.073826,-19.534848,3.033807
-11.073826,-19.421241,4.605102
-11.073826,-19.301146,6.176397
-11.073826,-19.174563,7.747692
-11.073826,-19.041490,9.318987
-10.153680,-20.361718,-12.679142
-10.153680,-20.298286,-11.107847
-10.153680,-20.228366,-9.536552
-10.153680,-20.151958,-7.965258
-10.153680,-20.069060,-6.393963
-10.153680,-19.979674,-4.822668
-10.153680,-19.883799,-3.251373
-10.153680,-19.781435,-1.680078
-10.153680,-19.672583,-0.108783
-10.153680,-19.557242,1.462512
-10.153680,-19.435413,3.033807
-10.153680,-19.307094,4.605102
-10.153680,-19.172287,6.176397
-10.153680,-19.030992,7.747692
-10.153680,-18.883207,9.318987
-10.153680,-18.728934,10.890281
-9.233533,-20.386840,-12.679142
-9.233533,-20.308696,-11.107847
-9.233533,-20.224064,-9.536552
-9.233533,-20.132943,-7.965258
-9.233533,-20.035334,-6.393963
-9.233533,-19.931236,-4.822668
-9.233533,-19.820649,-3.251373
-9.233533,-19.703573,-1.680078
-9.233533,-19.580009,-0.108783
-9.233533,-19.449956,1.462512
-9.233533,-19.313415,3.033807
-9.233533,-19.170385,4.605102
-9.233533,-19.020866,6.176397
-9.233533,-18.864858,7.747692
-9.233533,-18.702362,9.318987
-9.233533,-18.533377,10.890281
-8.313387,-20.389398,-12.679142
-8.313387,-20.296543,-11.107847
-8.313387,-20.197199,-9.536552
-8.313387,-20.091366,-7.965258
-8.313387,-19.979045,-6.393963
-8.313387,-19.860235,-4.822668
-8.313387,-19.734936,-3.251373
-8.313387,-19.603148,-1.680078
-8.313387,-19.464872,-0.108783
-8.313387,-19.320107,1.462512
-8.313387,-19.168854,3.033807
-8.313387,-19.011112,4.605102
-8.313387,-18.846881,6.176397
-8.313387,-18.676161,7.747692
-8.313387,-18.498953,9.318987
-8.313387,-18.315256,10.890281
-7.393240,-20.369394,-12.679142
-7.393240,-20.261827,-11.107847
-7.393240,-20.147771,-9.536552
-7.393240,-20.027226,-7.965258
-7.393240,-19.900193,-6.393963
-7.393240,-19.766671,-4.822668
-7.393240,-19.626660,-3.251373
-7.393240,-19.480160,-1.680078
-7.393240,-19.327172,-0.108783
-7.393240,-19.167696,1.462512
-7.393240,-19.001730,3.033807
-7.393240,-18.829276,4.605102
-7.393240,-18.650333,6.176397
-7.393240,-18.464901,7.747692
-7.393240,-18.272981,9.318987
-7.393240,-18.074572,10.890281
-6.473094,-20.326827,-12.679142
-6.473094,-20.204547,-11.107847
-6.473094,-20.075779,-9.536552
-6.473094,-19.940523,-7.965258
-6.473094,-19.798777,-6.393963
-6.473094,-19.650543,-4.822668
-6.473094,-19.495821,-3.251373
-6.473094,-19.334609,-1.680078
-6.473094,-19.166909,-0.108783
-6.473094,-18.992721,1.462512
-6.473094,-18.812043,3.033807
-6.473094,-18.624877,4.605102
-6.473094,-18.431222,6.176397
-6.473094,-18.231079,7.747692
-6.473094,-18.024446,9.318987
-6.473094,-17.811326,10.890281
-5.552947,-20.261696,-12.679142
-5.552947,-20.124705,-11.107847
-5.552947,-19.981225,-9.536552
-5.552947,-19.831257,-7.965258
-5.552947,-19.674799,-6.393963
-5.552947,-19.511853,-4.822668
-5.552947,-19.342419,-3.251373
-5.552947,-19.166495,-1.680078
-5.552947,-18.984083,-0.108783
-5.552947,-18.795183,1.462512
-5.552947,-18.599793,3.033807
-5.552947,-18.397915,4.605102
-5.552947,-18.189548,6.176397
-5.552947,-17.974693,7.747692
-5.552947,-17.753349,9.318987
-5.552947,-17.525516,10.890281
-4.632801,-20.174003,-12.679142
-4.632801,-20.022300,-11.107847
-4.632801,-19.864108,-9.536552
-4.632801,-19.699427,-7.965258
-4.632801,-19.528258,-6.393963
-4.632801,-19.350600,-4.822668
-4.632801,-19.166453,-3.251373
-4.632801,-18.975818,-1.680078
-4.632801,-18.778694,-0.108783
-4.632801,-18.575081,1.462512
-4.632801,-18.364980,3.033807
-4.632801,-18.148390,4.605102
-4.632801,-17.925311,6.176397
-4.632801,-17.695744,7.747692
-4.632801,-17.459688,9.318987
-4.632801,-17.217143,10.890281
-3.712654,-20.063747,-12.679142
-3.712654,-19.897331,-11.107847
-3.712654,-19.724428,-9.536552
-3.712654,-19.545035,-7.965258
-3.712654,-19.359154,-6.393963
-3.712654,-19.166784,-4.822668
-3.712654,-18.967925,-3.251373
-3.712654,-18.762578,-1.680078
-3.712654,-18.550742,-0.108783
-3.712654,-18.332417,1.462512
-3.712654,-18.107604,3.033807
-3.712654,-17.876302,4.605102
-3.712654,-17.638511,6.176397
-3.712654,-17.394232,7.747692
-3.712654,-17.143464,9.318987
-3.712654,-16.886207,10.890281
-2.792508,-19.930927,-12.679142
-2.792508,-19.749800,-11.107847
-2.792508,-19.562184,-9.536552
-2.792508,-19.368080,-7.965258
-2.792508,-19.167487,-6.393963
-2.792508,-18.960405,-4.822668
-2.792508,-18.746834,-3.251373
-2.792508,-18.526775,-1.680078
-2.792508,-18.300227,-0.108783
-2.792508,-18.067190,1.462512
-2.792508,-17.827665,3.033807
-2.792508,-17.581651,4.605102
-2.792508,-17.329148,6.176397
-2.792508,-17.070157,7.747692
-2.792508,-16.804677,9.318987
-2.792508,-16.532708,10.890281
-1.872361,-19.775545,-12.679142
-1.872361,-19.579706,-11.107847
-1.872361,-19.377378,-9.536552
-1.872361,-19.168561,-7.965258
-1.872361,-18.953256,-6.393963
-1.872361,-18.731462,-4.822668
-1.872361,-18.503180,-3.251373
-1.872361,-18.268409,-1.680078
-1.872361,-18.027149,-0.108783
-1.872361,-17.779400,1.462512
-1.872361,-17.525163,3.033807
-1.872361,-17.264437,4.605102
-1.872361,-16.997222,6.176397
-1.872361,-16.723519,7.747692
-1.872361,-16.443327,9.318987
-1.872361,-16.156646,10.890281
-0.952215,-19.597599,-12.679142
-0.952215,-19.387048,-11.107847
-0.952215,-19.170008,-9.536552
-0.952215,-18.946480,-7.965258
-0.952215,-18.716463,-6.393963
-0.952215,-18.479957,-4.822668
-0.952215,-18.236963,-3.251373
-0.952215,-17.987480,-1.680078
-0.952215,-17.731508,-0.108783
-0.952215,-17.469047,1.462512
-0.952215,-17.200098,3.033807
-0.952215,-16.924660,4.605102
-0.952215,-16.642733,6.176397
-0.952215,-16.354318,7.747692
-0.952215,-16.059414,9.318987
-0.952215,-15.758022,10.890281
-0.032068,-19.397091,-12.679142
-0.032068,-19.171828,-11.107847
-0.032068,-18.940076,-9.536552
-0.032068,-18.701836,-7.965258
-0.032068,-18.457107,-6.393963
-0.032068,-18.205889,-4.822668
-0.032068,-17.948182,-3.251373
-0.032068,-17.683987,-1.680078
-0.032068,-17.413303,-0.108783
-0.032068,-17.136131,1.462512
-0.032068,-16.852470,3.033807
-0.032068,-16.562320,4.605102
-0.032068,-16.265681,6.176397
-0.032068,-15.962554,7.747692
-0.032068,-15.652938,9.318987
-0.032068,-15.336834,10.890281
-7.888684,-18.880726,-12.679142
-12.388547,-18.907858,-11.107847
-15.022052,-18.931746,-9.536552
-16.419854,-18.952389,-7.965258
-17.059236,-18.969789,-6.393963
-17.284014,-18.983943,-4.822668
-17.324465,-18.994854,-3.251373
-17.317235,-19.002520,-1.680078
-17.325261,-19.006942,-0.108783
-17.357685,-19.008119,1.462512
-17.389773,-19.006052,3.033807
-17.382830,-19.000741,4.605102
-17.304117,-18.992185,6.176397
-17.146768,-18.980385,7.747692
-16.949709,-18.965341,9.318987
-16.817570,-18.947052,10.890281
-0.536660,-21.194123,-13.116924
-0.536660,-19.027722,-13.219442
-0.536660,-16.925990,-13.129664
-0.536660,-14.862575,-12.925950
-0.536660,-12.815053,-12.674978
-0.536660,-10.764931,-12.431738
-0.536660,-8.697645,-12.239536
-0.536660,-6.602559,-12.129994
-0.536660,-4.472971,-12.123049
-0.536660,-2.306103,-12.226953
-0.536660,-0.103112,-12.438272
-0.536660,2.130920,-12.741890
-0.536660,4.386978,-13.111003
-0.536660,6.652119,-13.507124
-0.536660,8.909470,-13.880082
-0.536660,11.138228,-14.168018
-0.536660,13.313661,-14.297393
-0.536660,15.407108,-14.182978
-0.536660,17.385976,-13.727863
-0.536660,19.213744,-12.823451
-1.710767,-21.518992,-12.869446
-1.710767,-19.278561,-13.137627
-1.710767,-17.123003,-13.153438
-1.710767,-15.021325,-13.009036
-1.710767,-12.947018,-12.783246
-1.710767,-10.878057,-12.541559
-1.710767,-8.796902,-12.336133
-1.710767,-6.690497,-12.205788
-1.710767,-4.550269,-12.176015
-1.710767,-2.372131,-12.258967
-1.710767,-0.156480,-12.453464
-1.710767,2.091802,-12.744994
-1.710767,4.363352,-13.105707
-1.710767,6.644318,-13.494422
-1.710767,8.916368,-13.856624
-1.710767,11.156683,-14.124461
-1.710767,13.337961,-14.216750
-1.710767,15.428414,-14.038972
-1.710767,17.391773,-13.483276
-1.710767,19.187281,-12.428473
-2.884874,-21.857629,-12.742842
-2.884874,-19.555154,-13.150188
-2.884874,-17.356588,-13.248555
-2.884874,-15.226313,-13.143860
-2.884874,-13.133751,-12.927024
-2.884874,-11.053368,-12.673974
-2.884874,-8.964672,-12.445644
-2.884874,-6.852214,-12.287970
-2.884874,-4.705587,-12.231897
-2.884874,-2.519427,-12.293375
-2.884874,-0.293414,-12.473358
-2.884874,1.967732,-12.757808
-2.884874,4.254245,-13.117690
-2.884874,6.551320,-13.508977
-2.884874,8.839108,-13.872647
-2.884874,11.092715,-14.134682
-2.884874,13.282208,-14.206072
-2.884874,15.372609,-13.982811
-2.884874,17.323898,-13.345899
-2.884874,19.091013,-12.161342
-4.058981,-22.183940,-12.691118
-4.058981,-19.832197,-13.212375
-4.058981,-17.601622,-13.373336
-4.058981,-15.452174,-13.293065
-4.058981,-13.349396,-13.074021
-4.058981,-11.264414,-12.802059
-4.058981,-9.173940,-12.546430
-4.058981,-7.060267,-12.359781
-4.058981,-4.911276,-12.278152
-4.058981,-2.720429,-12.320982
-4.058981,-0.486773,-12.491103
-4.058981,1.785059,-12.774744
-4.058981,4.084853,-13.141528
-4.058981,6.396808,-13.544477
-4.058981,8.699542,-13.920004
-4.058981,10.966087,-14.187921
-4.058981,13.163890,-14.251435
-4.058981,15.254815,-13.997147
-4.058981,17.195143,-13.295055
-4.058981,18.935570,-11.998553
-5.233088,-22.469894,-12.690054
-5.233088,-20.083584,-13.297583
-5.233088,-17.833066,-13.501331
-5.233088,-15.674314,-13.432210
-5.233088,-13.569387,-13.203042
-5.233088,-11.486427,-12.908555
-5.233088,-9.399660,-12.625387
-5.233088,-7.289399,-12.412080
-5.233088,-5.142038,-12.309089
-5.233088,-2.950058,-12.338773
-5.233088,-0.712024,-12.505401
-5.233088,1.567415,-12.795148
-5.233088,3.877527,-13.176099
-5.233088,6.201493,-13.598246
-5.233088,8.516411,-13.993488
-5.233088,10.793294,-14.275633
-5.233088,12.997071,-14.340397
-5.233088,15.086587,-14.065403
-5.233088,17.014601,-13.310183
-5.233088,18.727790,-11.916175
-6.407195,-22.688262,-12.729077
-6.407195,-20.284528,-13.391032
-6.407195,-18.027602,-13.616453
-6.407195,-15.870163,-13.546046
-6.407195,-13.771410,-13.301136
-6.407195,-11.697057,-12.983673
-6.407195,-9.619335,-12.676225
-6.407195,-7.516993,-12.441986
-6.407195,-5.375297,-12.324768
-6.407195,-3.186029,-12.349006
-6.407195,-0.947488,-12.519757
-6.407195,1.335509,-12.822698
-6.407195,3.651628,-13.224129
-6.407195,5.983020,-13.670972
-6.407195,8.305316,-14.090770
-6.407195,10.587632,-14.391688
-6.407195,12.792567,-14.462511
-6.407195,14.876202,-14.172648
-6.407195,16.788102,-13.372127
-6.407195,18.471314,-11.891601
-7.581301,-22.814888,-12.804505
-7.581301,-20.413205,-13.484894
-7.581301,-18.164793,-13.709531
-7.581301,-16.019983,-13.626103
-7.581301,-13.935963,-13.361915
-7.581301,-11.876776,-13.023889
-7.581301,-9.813316,-12.698565
-7.581301,-7.723337,-12.452100
-7.581301,-5.591442,-12.330269
-7.581301,-3.409093,-12.358465
-7.581301,-1.174605,-12.541697
-7.581301,1.106853,-12.864594
-7.581301,3.423255,-13.291399
-7.581301,5.755723,-13.765975
-7.581301,8.078522,-14.211803
-7.581301,10.359065,-14.531979
-7.581301,12.557908,-14.609220
-7.581301,14.628753,-14.305857
-7.581301,16.518447,-13.463841
-7.581301,18.166984,-11.904739
-8.755408,-22.830569,-12.913951
-8.755408,-20.452019,-13.574515
-8.755408,-18.227908,-13.775850
-8.755408,-16.107390,-13.669153
-8.755408,-14.046688,-13.384590
-8.755408,-12.009099,-13.031300
-8.755408,-9.964991,-12.697393
-8.755408,-7.891806,-12.449951
-8.755408,-5.774054,-12.335027
-8.755408,-3.603319,-12.377647
-8.755408,-1.378259,-12.581805
-8.755408,0.895399,-12.930470
-8.755408,3.204855,-13.385582
-8.755408,5.530238,-13.888051
-8.755408,7.844603,-14.357760
-8.755408,10.113935,-14.693562
-8.755408,12.297147,-14.773283
-8.755408,14.346079,-14.453720
-8.755408,16.205498,-13.570642
-8.755408,17.813103,-11.938789
-9.929515,-22.722437,-13.052224
-9.929515,-20.388473,-13.655835
-9.929515,-18.204441,-13.813624
-9.929515,-16.119645,-13.676332
-9.929515,-14.090537,-13.373450
-9.929515,-12.080717,-13.013217
-9.929515,-10.060930,-12.682618
-9.929515,-8.009072,-12.447386
-9.929515,-5.910181,-12.352004
-9.929515,-3.756448,-12.419699
-9.929515,-1.547206,-12.652449
-9.929515,0.711061,-13.030976
-9.929515,3.004724,-13.514752
-9.929515,5.313006,-14.041998
-9.929515,7.607982,-14.529679
-9.929515,9.854580,-14.873510
-9.929515,12.010583,-14.947953
-9.929515,14.026625,-14.606218
-9.929515,15.846191,-13.680263
-9.929515,17.405623,-11.980791
-11.103622,-22.484629,-13.209320
-11.103622,-20.215534,-13.724304
-11.103622,-18.086286,-13.823448
-11.103622,-16.047754,-13.652850
-11.103622,-14.057869,-13.337598
-11.103622,-12.081629,-12.981773
-11.103622,-10.091098,-12.668444
-11.103622,-8.065403,-12.459672
-11.103622,-5.990741,-12.396507
-11.103622,-3.860370,-12.498993
-11.103622,-1.674616,-12.766162
-11.103622,0.559131,-13.176036
-11.103622,2.826413,-13.685629
-11.103622,5.105710,-14.230946
-11.103622,7.368432,-14.726982
-11.103622,9.578929,-15.067722
-11.103622,11.694481,-15.126142
-11.103622,13.665304,-14.754210
-11.103622,15.434549,-13.782882
-11.103622,16.938301,-12.022107
-12.277729,-22.118132,-13.370901
-12.277729,-19.931457,-13.775394
-12.277729,-17.869622,-13.808672
-12.277729,-15.886437,-13.608081
-12.277729,-13.942535,-13.290684
-12.277729,-12.005366,-12.953265
-12.277729,-10.049203,-12.672328
-12.277729,-8.055136,-12.504096
-12.277729,-6.011078,-12.484512
-12.277729,-3.911763,-12.629239
-12.277729,-1.758742,-12.933658
-12.277729,0.439610,-13.372872
-12.277729,2.668101,-13.901702
-12.277729,4.904715,-14.454690
-12.277729,7.120619,-14.946095
-12.277729,9.280159,-15.269898
-12.277729,11.340859,-15.299801
-12.277729,13.253424,-14.889221
-12.277729,14.961738,-13.871299
-12.277729,16.402865,-12.058895
-13.451836,-21.629825,-13.521137
-13.451836,-19.539159,-13.806477
-13.451836,-17.554581,-13.776357
-13.451836,-15.634087,-13.555685
-13.451836,-13.742086,-13.250291
-13.451836,-11.849401,-12.946927
-13.451836,-9.933274,-12.713270
-13.451836,-7.977360,-12.597921
-13.451836,-5.971730,-12.630402
-13.451836,-3.912871,-12.821161
-13.451836,-1.803685,-13.161568
-13.451836,0.346510,-13.623916
-13.451836,2.521982,-14.161423
-13.451836,4.700580,-14.708228
-13.451836,6.853741,-15.179396
-13.451836,8.946486,-15.470914
-13.451836,10.937418,-15.459692
-13.451836,12.778728,-15.003564
-13.451836,14.416188,-13.941288
-13.451836,15.789158,-12.092544
-14.625943,-21.031010,-13.647072
-14.625943,-19.045388,-13.819278
-14.625943,-17.144966,-13.738145
-14.625943,-15.292905,-13.513206
-14.625943,-13.458236,-13.236555
-14.625943,-11.615853,-12.982840
-14.625943,-9.746518,-12.809269
-14.625943,-7.836857,-12.755606
-14.625943,-5.879363,-12.844174
-14.625943,-3.872396,-13.079853
-14.625943,-1.820180,-13.450079
-14.625943,0.267193,-13.924848
-14.625943,2.373768,-14.456711
-14.625943,4.477721,-14.980779
-14.625943,6.551364,-15.414717
-14.625943,8.561141,-15.658751
-14.625943,10.467632,-15.595664
-14.625943,12.225551,-15.090793
-14.625943,13.783744,-13.992038
-14.625943,15.085194,-12.129851
-15.800049,-20.335935,-13.743010
-15.800049,-18.460108,-13.821728
-15.800049,-16.648280,-13.710143
-15.800049,-14.869429,-13.500503
-15.800049,-13.097727,-13.269600
-15.800049,-11.312548,-13.078775
-15.800049,-9.498461,-12.973910
-15.800049,-7.645231,-12.985435
-15.800049,-5.747823,-13.128324
-15.800049,-3.806398,-13.402096
-15.800049,-1.826317,-13.790817
-15.800049,0.181866,-14.263096
-15.800049,2.202396,-14.772088
-15.800049,4.214320,-15.255494
-15.800049,6.191491,-15.635559
-15.800049,8.102562,-15.819075
-15.800049,9.910989,-15.697377
-15.800049,11.575030,-15.146346
-15.800049,13.047747,-14.026410
-15.800049,14.277003,-12.182539
-16.974156,-19.560948,-13.813047
-16.974156,-17.796528,-13.827845
-16.974156,-16.076408,-13.710917
-16.974156,-14.375623,-13.536495
-16.974156,-12.673655,-13.365592
-16.974156,-10.954429,-13.246006
-16.974156,-9.206317,-13.212312
-16.974156,-7.422136,-13.285870
-16.974156,-5.599148,-13.474820
-16.974156,-3.739062,-13.774084
-16.974156,-1.848030,-14.165365
-16.974156,0.063349,-14.617148
-16.974156,1.980032,-15.084700
-16.974156,3.882527,-15.510068
-16.974156,5.746902,-15.822083
-16.974156,7.544775,-15.936356
-16.974156,9.243322,-15.755278
-16.974156,10.805270,-15.168025
-16.974156,12.188905,-14.050551
-16.974156,13.348063,-12.265595
-18.148263,-18.724846,-13.870017
-18.148263,-17.072166,-13.854598
-18.148263,-15.447104,-13.757058
-18.148263,-13.830588,-13.634103
-18.148263,-12.207200,-13.531585
-18.148263,-10.565172,-13.484491
-18.148263,-8.896390,-13.516952
-18.148263,-7.196390,-13.642240
-18.148263,-5.464361,-13.862766
-18.148263,-3.703144,-14.170083
-18.148263,-1.919232,-14.544884
-18.148263,-0.122770,-14.957002
-18.148263,1.672444,-15.365413
-18.148263,3.448963,-15.718231
-18.148263,5.185685,-15.952712
-18.148263,6.857858,-15.995253
-18.148263,8.437075,-15.761391
-18.148263,9.891280,-15.155805
-18.148263,11.184764,-14.072313
-18.148263,12.278167,-12.393874
-19.322370,-17.850735,-13.929973
-19.322370,-16.311017,-13.915450
-19.322370,-14.786243,-13.856489
-19.322370,-13.262700,-13.793871
-19.322370,-11.729533,-13.759865
-19.322370,-10.178755,-13.778229
-19.322370,-8.605239,-13.864206
-19.322370,-7.006720,-14.024525
-19.322370,-5.383800,-14.257405
-19.322370,-3.739940,-14.552549
-19.322370,-2.081466,-14.891149
-19.322370,-0.417566,-15.245882
-19.322370,1.239708,-15.580913
-19.322370,2.875442,-15.851894
-19.322370,4.471859,-16.005965
-19.322370,6.008318,-15.981750
-19.322370,7.461316,-15.709363
-19.322370,8.804486,-15.110402
-19.322370,10.008600,-14.097955
-19.322370,11.041566,-12.576595
-20.496477,-16.969256,-14.002589
-20.496477,-15.546563,-14.011406
-20.496477,-14.130471,-14.000594
-20.496477,-12.711796,-13.997463
-20.496477,-11.283477,-14.023010
-20.496477,-9.840574,-14.091920
-20.496477,-8.380273,-14.212567
-20.496477,-6.901879,-14.387010
-20.496477,-5.406824,-14.610998
-20.496477,-3.898659,-14.873966
-20.496477,-2.383062,-15.159037
-20.496477,-0.867829,-15.443022
-20.496477,0.637116,-15.696418
-20.496477,2.119731,-15.883411
-20.496477,3.565846,-15.961875
-20.496477,4.959173,-15.883371
-20.496477,6.281297,-15.593146
-20.496477,7.511683,-15.030136
-20.496477,8.627672,-14.126965
-20.496477,9.604483,-12.809943
-21.670584,-16.122509,-14.079486
-21.670584,-14.824950,-14.121567
-21.670584,-13.529604,-14.157065
-21.670584,-12.230828,-14.202767
-21.670584,-10.924445,-14.271085
-21.670584,-9.607752,-14.370059
-21.670584,-8.279517,-14.503356
-21.670584,-6.939977,-14.670268
-21.670584,-5.590840,-14.865718
-21.670584,-4.235284,-15.080251
-21.670584,-2.877961,-15.300042
-21.670584,-1.524989,-15.506893
-21.670584,-0.183960,-15.678232
-21.670584,1.136064,-15.787114
-21.670584,2.424552,-15.802221
-21.670584,3.669500,-15.687862
-21.670584,4.857434,-15.403973
-21.670584,5.973411,-14.906117
-21.670584,7.001016,-14.145484
-21.670584,7.922362,-13.068891
-22.844690,-15.367616,-14.123649
-22.844690,-14.207410,-14.195929
-22.844690,-13.048042,-14.265719
-22.844690,-11.886386,-14.342312
-22.844690,-10.720251,-14.432221
-22.844690,-9.548382,-14.539180
-22.844690,-8.370459,-14.664142
-22.844690,-7.187097,-14.805280
-22.844690,-5.999843,-14.957986
-22.844690,-4.811184,-15.114873
-22.844690,-3.624538,-15.265773
-22.844690,-2.444259,-15.397738
-22.844690,-1.275638,-15.495042
-22.844690,-0.124898,-15.539174
-22.844690,1.000801,-15.508848
-22.844690,2.093365,-15.379995
-22.844690,3.143766,-15.125766
-22.844690,4.142037,-14.716533
-22.844690,5.077281,-14.119886
-22.844690,5.937664,-13.300637
0.000000,-13.889944,12.818513
0.000000,-12.062426,12.807318
0.000000,-10.234907,12.519852
0.000000,-8.407388,12.067587
0.000000,-6.579870,11.541251
0.000000,-4.752351,11.012258
0.000000,-2.924833,10.534130
0.000000,-1.097314,10.143920
0.000000,0.730205,9.863641
0.000000,2.557723,9.701688
0.000000,4.385242,9.654260
0.000000,6.212760,9.706793
0.000000,8.040279,9.835374
0.000000,9.867798,10.008175
0.000000,11.695316,10.186871
0.000000,13.522835,10.328069
0.000000,15.350353,10.384729
0.000000,17.177872,10.307594
0.000000,19.005391,10.046608
0.000000,20.832909,9.552345
-1.230597,-16.493257,12.103871
-1.230597,-14.501201,12.766063
-1.230597,-12.509145,12.879865
-1.230597,-10.517089,12.627890
-1.230597,-8.525033,12.160700
-1.230597,-6.532977,11.599000
-1.230597,-4.540921,11.035829
-1.230597,-2.548865,10.538754
-1.230597,-0.556809,10.152061
-1.230597,1.435247,9.898949
-1.230597,3.427303,9.783719
-1.230597,5.419359,9.793971
-1.230597,7.411414,9.902792
-1.230597,9.403470,10.070952
-1.230597,11.395526,10.249093
-1.230597,13.387582,10.379923
-1.230597,15.379638,10.400412
-1.230597,17.371694,10.243975
-1.230597,19.363750,9.842675
-1.230597,21.355806,9.129409
-2.461195,-17.211757,11.799781
-2.461195,-15.170422,12.709129
-2.461195,-13.129086,12.972192
-2.461195,-11.087750,12.797894
-2.461195,-9.046415,12.358777
-2.461195,-7.005079,11.793470
-2.461195,-4.963744,11.209172
-2.461195,-2.922408,10.684129
-2.461195,-0.881072,10.270106
-2.461195,1.160263,9.994870
-2.461195,3.201599,9.864667
-2.461195,5.242935,9.866695
-2.461195,7.284270,9.971584
-2.461195,9.325606,10.135875
-2.461195,11.366941,10.304494
-2.461195,13.408277,10.413231
-2.461195,15.449613,10.391218
-2.461195,17.490948,10.163403
-2.461195,19.532284,9.653032
-2.461195,21.573620,8.784122
-3.691792,-17.194860,11.992666
-3.691792,-15.154801,12.856359
-3.691792,-13.114742,13.082033
-3.691792,-11.074683,12.878440
-3.691792,-9.034625,12.417759
-3.691792,-6.994566,11.838072
-3.691792,-4.954507,11.245826
-3.691792,-2.914448,10.718310
-3.691792,-0.874389,10.306116
-3.691792,1.165670,10.035616
-3.691792,3.205729,9.911430
-3.691792,5.245788,9.918892
-3.691792,7.285846,10.026523
-3.691792,9.325905,10.188499
-3.691792,11.365964,10.347121
-3.691792,13.406023,10.435286
-3.691792,15.446082,10.378952
-3.691792,17.486141,10.099615
-3.691792,19.526200,9.516770
-3.691792,21.566258,8.550387
-4.922390,-17.112140,12.269120
-4.922390,-15.085145,13.044038
-4.922390,-13.058150,13.205462
-4.922390,-11.031155,12.957243
-4.922390,-9.004160,12.467366
-4.922390,-6.977165,11.870350
-4.922390,-4.950170,11.269635
-4.922390,-2.923175,10.739973
-4.922390,-0.896180,10.329824
-4.922390,1.130815,10.063742
-4.922390,3.157809,9.944770
-4.922390,5.184804,9.956831
-4.922390,7.211799,10.067118
-4.922390,9.238794,10.228488
-4.922390,11.265789,10.381850
-4.922390,13.292784,10.458559
-4.922390,15.319779,10.382808
-4.922390,17.346774,10.074018
-4.922390,19.373769,9.449229
-4.922390,21.400764,8.425494
-6.152987,-17.277046,12.426478
-6.152987,-15.255554,13.193177
-6.152987,-13.234062,13.342075
-6.152987,-11.212569,13.078525
-6.152987,-9.191077,12.571919
-6.152987,-7.169584,11.958047
-6.152987,-5.148092,11.341458
-6.152987,-3.126600,10.797819
-6.152987,-1.105107,10.376273
-6.152987,0.916385,10.101798
-6.152987,2.937877,9.977567
-6.152987,4.959370,9.987309
-6.152987,6.980862,10.097665
-6.152987,9.002355,10.260549
-6.152987,11.023847,10.415505
-6.152987,13.045339,10.492070
-6.152987,15.066832,10.412131
-6.152987,17.088324,10.092284
-6.152987,19.109816,9.446193
-6.152987,21.131309,8.386951
-7.383584,-17.755172,12.405192
-7.383584,-15.725994,13.278232
-7.383584,-13.696817,13.488299
-7.383584,-11.667640,13.251666
-7.383584,-9.638462,12.747263
-7.383584,-7.609285,12.119081
-7.383584,-5.580108,11.478571
-7.383584,-3.550930,10.907057
-7.383584,-1.521753,10.458133
-7.383584,0.507424,10.160071
-7.383584,2.536602,10.018224
-7.383584,4.565779,10.017433
-7.383584,6.594956,10.124426
-7.383584,8.624134,10.290230
-7.383584,10.653311,10.452567
-7.383584,12.682488,10.538265
-7.383584,14.711666,10.465659
-7.383584,16.740843,10.146998
-7.383584,18.770021,9.490846
-7.383584,20.799198,8.404489
-8.614182,-18.457075,12.194096
-8.614182,-16.410236,13.277175
-8.614182,-14.363397,13.617413
-8.614182,-12.316558,13.449769
-8.614182,-10.269719,12.969428
-8.614182,-8.222880,12.334308
-8.614182,-6.176041,11.667572
-8.614182,-4.129202,11.060142
-8.614182,-2.082363,10.573206
-8.614182,-0.035523,10.240731
-8.614182,2.011316,10.071972
-8.614182,4.058155,10.053986
-8.614182,6.104994,10.154138
-8.614182,8.151833,10.322620
-8.614182,10.198672,10.494951
-8.614182,12.245511,10.594496
-8.614182,14.292350,10.534976
-8.614182,16.339189,10.222975
-8.614182,18.386028,9.560454
-8.614182,20.432868,8.447262
-9.844779,-19.215659,11.840127
-9.844779,-17.149157,13.188494
-9.844779,-15.082654,13.699178
-9.844779,-13.016152,13.628705
-9.844779,-10.949650,13.191052
-9.844779,-8.883147,12.560276
-9.844779,-6.816645,11.873153
-9.844779,-4.750142,11.231808
-9.844779,-2.683640,10.706349
-9.844779,-0.617138,10.337505
-9.844779,1.449365,10.139255
-9.844779,3.515867,10.101462
-9.844779,5.582369,10.192511
-9.844779,7.648872,10.361939
-9.844779,9.715374,10.543070
-9.844779,11.781876,10.655648
-9.844779,13.848379,10.608473
-9.844779,15.914881,10.302034
-9.844779,17.981384,9.631139
-9.844779,20.047886,8.487556
-11.075377,-19.848098,11.480020
-11.075377,-17.769411,13.063343
-11.075377,-15.690724,13.729781
-11.075377,-13.612037,13.753161
-11.075377,-11.533351,13.362634
-11.075377,-9.454664,12.745395
-11.075377,-7.375977,12.049388
-11.075377,-5.297290,11.386025
-11.075377,-3.218603,10.832893
-11.075377,-1.139916,10.436471
-11.075377,0.938771,10.214838
-11.075377,3.017458,10.160389
-11.075377,5.096144,10.242545
-11.075377,7.174831,10.410465
-11.075377,9.253518,10.595763
-11.075377,11.332205,10.715214
-11.075377,13.410892,10.673470
-11.075377,15.489579,10.365773
-11.075377,17.568266,9.680665
-11.075377,19.646953,8.502701
-12.305974,-20.202326,11.303483
-12.305974,-18.127472,12.992892
-12.305974,-16.052618,13.734775
-12.305974,-13.977764,13.808551
-12.305974,-11.902910,13.448512
-12.305974,-9.828056,12.846516
-12.305974,-7.753202,12.154667
-12.305974,-5.678348,11.488009
-12.305974,-3.603494,10.927209
-12.305974,-1.528640,10.521246
-12.305974,0.546214,10.290100
-12.305974,2.621068,10.227437
-12.305974,4.695922,10.303298
-12.305974,6.770776,10.466785
-12.305974,8.845630,10.648752
-12.305974,10.920484,10.764486
-12.305974,12.995338,10.716401
-12.305974,15.070192,10.396724
-12.305974,17.145046,9.690178
-12.305974,19.219900,8.476675
-13.536572,-20.188071,11.436008
-13.536572,-18.139031,13.039957
-13.536572,-16.089991,13.735102
-13.536572,-14.040951,13.790006
-13.536572,-11.991911,13.429966
-13.536572,-9.942871,12.839540
-13.536572,-7.893831,12.165070
-13.536572,-5.844791,11.517205
-13.536572,-3.795751,10.973428
-13.536572,-1.746711,10.580580
-13.536572,0.302330,10.357384
-13.536572,2.351370,10.296966
-13.536572,4.400410,10.369386
-13.536572,6.449450,10.524156
-13.536572,8.498490,10.692770
-13.536572,10.547530,10.791225
-13.536572,12.596570,10.722543
-13.536572,14.645610,10.379303
-13.536572,16.694650,9.646157
-13.536572,18.743690,8.402362
-14.767169,-19.792451,11.835193
-14.767169,-17.793773,13.175462
-14.767169,-15.795096,13.712223
-14.767169,-13.796418,13.687002
-14.767169,-11.797741,13.302219
-14.767169,-9.799064,12.723418
-14.767169,-7.800386,12.081496
-14.767169,-5.801709,11.474930
-14.767169,-3.803032,10.972008
-14.767169,-1.804354,10.613057
-14.767169,0.194323,10.412671
-14.767169,2.193000,10.361945
-14.767169,4.191678,10.430697
-14.767169,6.190355,10.569702
-14.767169,8.189033,10.712920
-14.767169,10.187710,10.779724
-14.767169,12.186387,10.677129
-14.767169,14.185065,10.302022
-14.767169,16.183742,9.543393
-14.767169,18.182419,8.284558
-15.997766,-19.080113,12.308578
-15.997766,-17.155512,13.291210
-15.997766,-15.230910,13.616715
-15.997766,-13.306309,13.488598
-15.997766,-11.381708,13.077051
-15.997766,-9.457106,12.520798
-15.997766,-7.532505,11.928940
-15.997766,-5.607903,11.382802
-15.997766,-3.683302,10.937776
-15.997766,-1.758700,10.625168
-15.997766,0.165901,10.454046
-15.997766,2.090503,10.413079
-15.997766,4.015104,10.472390
-15.997766,5.939705,10.585396
-15.997766,7.864307,10.690655
-15.997766,9.788908,10.713712
-15.997766,11.713510,10.568946
-15.997766,13.638111,10.161412
-15.997766,15.562713,9.388688
-15.997766,17.487314,8.142723
-17.228364,-18.177942,12.644481
-17.228364,-16.347696,13.281492
-17.228364,-14.517450,13.414156
-17.228364,-12.687204,13.204482
-17.228364,-10.856958,12.787602
-17.228364,-9.026712,12.273208
-17.228364,-7.196465,11.746988
-17.228364,-5.366219,11.272061
-17.228364,-3.535973,10.890410
-17.228364,-1.705727,10.624322
-17.228364,0.124519,10.477819
-17.228364,1.954765,10.438094
-17.228364,3.785011,10.476951
-17.228364,5.615257,10.552232
-17.228364,7.445503,10.609261
-17.228364,9.275749,10.582272
-17.228364,11.105995,10.395850
-17.228364,12.936241,9.966362
-17.228364,14.766487,9.203397
-17.228364,16.596733,8.011196
-18.458961,-17.244303,12.734000
-18.458961,-15.524279,13.111451
-18.458961,-13.804254,13.116146
-18.458961,-12.084229,12.871582
-18.458961,-10.364204,12.480583
-18.458961,-8.644180,12.026350
-18.458961,-6.924155,11.573514
-18.458961,-5.204130,11.169189
-18.458961,-3.484106,10.844020
-18.458961,-1.764081,10.613242
-18.458961,-0.044056,10.477725
-18.458961,1.675969,10.425032
-18.458961,3.395993,10.430468
-18.458961,5.116018,10.458132
-18.458961,6.836043,10.461970
-18.458961,8.556067,10.386828
-18.458961,10.276092,10.169503
-18.458961,11.996117,9.739795
-18.458961,13.716142,9.021561
-18.458961,15.436166,7.933763
-19.689559,-16.422859,12.588806
-19.689559,-14.825959,12.813509
-19.689559,-13.229059,12.764271
-19.689559,-11.632160,12.532366
-19.689559,-10.035260,12.193864
-19.689559,-8.438360,11.810348
-19.689559,-6.841460,11.429646
-19.689559,-5.244561,11.086552
-19.689559,-3.647661,10.803557
-19.689559,-2.050761,10.591569
-19.689559,-0.453861,10.450644
-19.689559,1.143038,10.370707
-19.689559,2.739938,10.332283
-19.689559,4.336838,10.307217
-19.689559,5.933738,10.259405
-19.689559,7.530637,10.145516
-19.689559,9.127537,9.915719
-19.689559,10.724437,9.514411
-19.689559,12.321337,8.880937
-19.689559,13.918236,7.950324
-20.920156,-15.780922,12.278285
-20.920156,-14.321784,12.435897
-20.920156,-12.862646,12.389449
-20.920156,-11.403508,12.204228
-20.920156,-9.944371,11.934959
-20.920156,-8.485233,11.626266
-20.920156,-7.026095,11.313137
-20.920156,-5.566957,11.021383
-20.920156,-4.107819,10.768102
-20.920156,-2.648681,10.562144
-20.920156,-1.189544,10.404567
-20.920156,0.269594,10.289104
-20.920156,1.728732,10.202625
-20.920156,3.187870,10.125598
-20.920156,4.647008,10.032549
-20.920156,6.106145,9.892530
-20.920156,7.565283,9.669576
-20.920156,9.024421,9.323171
-20.920156,10.483559,8.808707
-20.920156,11.942697,8.077948
-22.150753,-15.232374,11.875630
-22.150753,-13.936121,12.007597
-22.150753,-12.639868,11.990220
-22.150753,-11.343615,11.866834
-22.150753,-10.047362,11.674191
-22.150753,-8.751109,11.442719
-22.150753,-7.454856,11.196773
-22.150753,-6.158603,10.954894
-22.150753,-4.862350,10.730065
-22.150753,-3.566097,10.529964
-22.150753,-2.269844,10.357223
-22.150753,-0.973591,10.209682
-22.150753,0.322662,10.080643
-22.150753,1.618915,9.959130
-22.150753,2.915168,9.830143
-22.150753,4.211421,9.674911
-22.150753,5.507674,9.471152
-22.150753,6.803927,9.193326
-22.150753,8.100180,8.812892
-22.150753,9.396433,8.298564
-23.381351,-14.445134,11.458991
-23.381351,-13.360998,11.552150
-23.381351,-12.276861,11.551202
-23.381351,-11.192724,11.479534
-23.381351,-10.108588,11.357324
-23.381351,-9.024451,11.201646
-23.381351,-7.940314,11.026574
-23.381351,-6.856177,10.843288
-23.381351,-5.772041,10.660175
-23.381351,-4.687904,10.482941
-23.381351,-3.603767,10.314707
-23.381351,-2.519631,10.156119
-23.381351,-1.435494,10.005453
-23.381351,-0.351357,9.858716
-23.381351,0.732780,9.709753
-23.381351,1.816916,9.550353
-23.381351,2.901053,9.370351
-23.381351,3.985190,9.157734
-23.381351,5.069326,8.898745
-23.381351,6.153463,8.577988
23.172888,0.000000,-6.393963
22.443615,0.000000,-4.822668
21.877142,0.000000,-3.251373
21.522687,0.000000,-1.680078
21.407051,0.000000,-0.108783
21.534623,0.000000,1.462512
21.887375,0.000000,3.033807
22.424866,0.000000,4.605102
23.084239,0.000000,6.176397
23.780222,0.000000,7.747692
24.405129,0.000000,9.318987
25.412178,1.093236,-14.250437
25.463958,1.093236,-12.679142
25.118932,1.093236,-11.107847
24.532811,1.093236,-9.536552
23.838890,1.093236,-7.965258
23.148050,1.093236,-6.393963
22.548757,1.093236,-4.822668
22.107061,1.093236,-3.251373
21.866599,1.093236,-1.680078
21.848593,1.093236,-0.108783
22.051849,1.093236,1.462512
22.452759,1.093236,3.033807
23.005300,1.093236,4.605102
23.641034,1.093236,6.176397
24.269109,1.093236,7.747692
24.776258,1.093236,9.318987
24.751032,2.186471,-14.250437
24.844556,2.186471,-12.679142
24.565204,2.186471,-11.107847
24.063105,2.186471,-9.536552
23.465973,2.186471,-7.965258
22.879108,2.186471,-6.393963
22.385395,2.186471,-4.822668
22.045304,2.186471,-3.251373
21.896889,2.186471,-1.680078
21.955793,2.186471,-0.108783
22.215240,2.186471,1.462512
22.646041,2.186471,3.033807
23.196592,2.186471,4.605102
23.792875,2.186471,6.176397
24.338455,2.186471,7.747692
24.714486,2.186471,9.318987
24.045861,3.279707,-14.250437
24.154425,3.279707,-12.679142
23.915269,3.279707,-11.107847
23.472940,3.279707,-9.536552
22.949572,3.279707,-7.965258
22.444884,3.279707,-6.393963
22.036180,3.279707,-4.822668
21.778348,3.279707,-3.251373
21.703863,3.279707,-1.680078
21.822785,3.279707,-0.108783
22.122757,3.279707,1.462512
22.569011,3.279707,3.033807
23.104360,3.279707,4.605102
23.649206,3.279707,6.176397
24.101534,3.279707,7.747692
24.336914,3.279707,9.318987
23.339292,4.372943,-14.250437
23.440019,4.372943,-12.679142
23.219408,4.372943,-11.107847
22.816426,4.372943,-9.536552
22.347625,4.372943,-7.965258
21.907144,4.372943,-6.393963
21.566704,4.372943,-4.822668
21.375615,4.372943,-3.251373
21.360769,4.372943,-1.680078
21.526645,4.372943,-0.108783
21.855306,4.372943,1.462512
22.306401,4.372943,3.033807
22.817165,4.372943,4.605102
23.302416,4.372943,6.176397
23.654560,4.372943,7.747692
22.730731,5.466178,-12.679142
22.510843,5.466178,-11.107847
22.130612,5.466178,-9.536552
21.701010,5.466178,-7.965258
21.310593,5.466178,-6.393963
21.025503,5.466178,-4.822668
20.889467,5.466178,-3.251373
20.923797,5.466178,-1.680078
21.127390,5.466178,-0.108783
21.476731,5.466178,1.462512
21.925885,5.466178,3.033807
22.406507,5.466178,4.605102
22.827835,5.466178,6.176397
23.076692,5.466178,7.747692
22.007163,6.559414,-14.250437
22.038898,6.559414,-12.679142
21.805739,6.559414,-11.107847
21.435492,6.559414,-9.536552
21.033547,6.559414,-7.965258
20.682880,6.559414,-6.393963
20.444051,6.559414,-4.822668
20.355206,6.559414,-3.251373
20.432078,6.559414,-1.680078
20.667981,6.559414,-0.108783
21.033819,6.559414,1.462512
21.478078,6.559414,3.033807
21.926830,6.559414,4.605102
22.283732,6.559414,6.176397
22.430028,6.559414,7.747692
21.359798,7.652650,-12.679142
21.103202,7.652650,-11.107847
20.733998,7.652650,-9.536552
20.351997,7.652650,-7.965258
20.034593,7.652650,-6.393963
19.836765,7.652650,-4.822668
