-16.629650,-15.678673,7.561257
-16.469717,-15.678673,9.094742
-16.380727,-15.678673,10.628226
-16.536629,-15.678673,12.161711
-12.637575,-14.807635,-12.374042
-15.791307,-14.807635,-10.840557
-17.482814,-14.807635,-9.307073
-18.236844,-14.807635,-7.773588
-18.445941,-14.807635,-6.240103
-18.388059,-14.807635,-4.706619
-18.244179,-14.807635,-3.173134
-18.115921,-14.807635,-1.639650
-18.043160,-14.807635,-0.106165
-18.021642,-14.807635,1.427319
-18.020598,-14.807635,2.960804
-18.000361,-14.807635,4.494288
-17.929978,-14.807635,6.027773
-17.804826,-14.807635,7.561257
-17.664229,-14.807635,9.094742
-17.609070,-14.807635,10.628226
-17.819408,-14.807635,12.161711
-14.820570,-13.936598,-12.374042
-17.608150,-13.936598,-10.840557
-19.020831,-13.936598,-9.307073
-19.567498,-13.936598,-7.773588
-19.626555,-13.936598,-6.240103
-19.463542,-13.936598,-4.706619
-19.248745,-13.936598,-3.173134
-19.074819,-13.936598,-1.639650
-18.974392,-13.936598,-0.106165
-18.937691,-13.936598,1.427319
-18.930149,-13.936598,2.960804
-18.910026,-13.936598,4.494288
-18.846018,-13.936598,6.027773
-18.734877,-13.936598,7.561257
-18.619023,-13.936598,9.094742
-18.604163,-13.936598,10.628226
-16.633827,-13.065560,-12.374042
-19.085327,-13.065560,-10.840557
-20.244782,-13.065560,-9.307073
-20.605649,-13.065560,-7.773588
-20.532625,-13.065560,-6.240103
-20.279267,-13.065560,-4.706619
-20.005602,-13.065560,-3.173134
-19.795747,-13.065560,-1.639650
-19.675521,-13.065560,-0.106165
-19.630062,-13.065560,1.427319
-19.621439,-13.065560,2.960804
-19.606269,-13.065560,4.494288
-19.553333,-13.065560,6.027773
-19.461190,-13.065560,7.561257
-19.375790,-13.065560,9.094742
-19.408093,-13.065560,10.628226
-18.121765,-12.194523,-12.374042
-20.266213,-12.194523,-10.840557
-21.197097,-12.194523,-9.307073
-21.392873,-12.194523,-7.773588
-21.204967,-12.194523,-6.240103
-20.875384,-12.194523,-4.706619
-20.554325,-12.194523,-3.173134
-20.317805,-12.194523,-1.639650
-20.185263,-12.194523,-0.106165
-20.137181,-12.194523,1.427319
-20.132697,-12.194523,2.960804
-20.127221,-12.194523,4.494288
-20.090048,-12.194523,6.027773
-20.021978,-12.194523,7.561257
-19.972922,-12.194523,9.094742
-20.059529,-12.194523,10.628226
-19.326844,-11.323486,-12.374042
-21.192107,-11.323486,-10.840557
-21.918003,-11.323486,-9.307073
-21.968424,-11.323486,-7.773588
-21.681953,-11.323486,-6.240103
-21.289479,-11.323486,-4.706619
-20.931810,-11.323486,-3.173134
-20.677288,-11.323486,-1.639650
-20.539409,-11.323486,-0.106165
-20.494430,-11.323486,1.427319
-20.498991,-11.323486,2.960804
-20.507726,-11.323486,4.494288
-20.490880,-11.323486,6.027773
-20.451922,-11.323486,7.561257
-20.445163,-11.323486,9.094742
-20.593368,-11.323486,10.628226
-20.289219,-10.452448,-12.374042
-21.901879,-10.452448,-10.840557
-22.445181,-10.452448,-9.307073
-22.368886,-10.452448,-7.773588
-21.999168,-10.452448,-6.240103
-21.556230,-10.452448,-4.706619
-21.171919,-10.452448,-3.173134
-20.907343,-10.452448,-1.639650
-20.770480,-10.452448,-0.106165
-20.733799,-10.452448,1.427319
-20.751874,-10.452448,2.960804
-20.778996,-10.452448,4.494288
-20.786790,-10.452448,6.027773
-20.781833,-10.452448,7.561257
-20.823261,-10.452448,9.094742
-21.040393,-10.452448,10.628226
-21.046387,-9.581411,-12.374042
-22.431623,-9.581411,-10.840557
-22.813415,-9.581411,-9.307073
-22.627827,-9.581411,-7.773588
-22.189056,-9.581411,-6.240103
-21.707054,-9.581411,-4.706619
-21.305139,-9.581411,-3.173134
-21.037613,-9.581411,-1.639650
-20.907374,-9.581411,-0.106165
-20.883536,-9.581411,1.427319
-20.919036,-9.581411,2.960804
-20.968257,-9.581411,4.494288
-21.004638,-9.581411,6.027773
-21.038293,-9.581411,7.561257
-21.133619,-9.581411,9.094742
-21.426921,-9.581411,10.628226
-18.949306,-8.710374,-13.907526
-21.632844,-8.710374,-12.374042
-22.814308,-8.710374,-10.840557
-23.054245,-8.710374,-9.307073
-22.775450,-8.710374,-7.773588
-22.280579,-8.710374,-6.240103
-21.769762,-8.710374,-4.706619
-21.358225,-8.710374,-3.173134
-21.093895,-8.710374,-1.639650
-20.975024,-8.710374,-0.106165
-20.967799,-8.710374,1.427319
-21.023958,-8.710374,2.960804
-21.098407,-8.710374,4.494288
-21.166832,-8.710374,6.027773
-21.243314,-8.710374,7.561257
-21.397949,-8.710374,9.094742
-21.774456,-8.710374,10.628226
-19.650527,-7.839336,-13.907526
-22.079734,-7.839336,-12.374042
-23.079434,-7.839336,-10.840557
-23.195617,-7.839336,-9.307073
-22.838244,-7.839336,-7.773588
-22.298861,-7.839336,-6.240103
-21.768212,-7.839336,-4.706619
-21.353858,-7.839336,-3.173134
-21.097789,-7.839336,-1.639650
-20.994041,-7.839336,-0.106165
-21.006309,-7.839336,1.427319
-21.085563,-7.839336,2.960804
-21.187664,-7.839336,4.494288
-21.290977,-7.839336,6.027773
-21.413989,-7.839336,7.561257
-21.632919,-7.839336,9.094742
-22.099338,-7.839336,10.628226
-20.215139,-6.968299,-13.907526
-22.414499,-6.968299,-12.374042
-23.252676,-6.968299,-10.840557
-23.261535,-6.968299,-9.307073
-22.838636,-6.968299,-7.773588
-22.264845,-6.968299,-6.240103
-21.721956,-6.968299,-4.706619
-21.310297,-6.968299,-3.173134
-21.066352,-6.968299,-1.639650
-20.980375,-6.968299,-0.106165
-21.014001,-6.968299,1.427319
-21.117866,-6.968299,2.960804
-21.249218,-6.968299,4.494288
-21.389535,-6.968299,6.027773
-21.562139,-6.968299,7.561257
-21.849809,-6.968299,9.094742
-22.412400,-6.968299,10.628226
-20.668516,-6.097262,-13.907526
-22.660534,-6.097262,-12.374042
-23.355542,-6.097262,-10.840557
-23.271714,-6.097262,-9.307073
-22.794640,-6.097262,-7.773588
-22.194943,-6.097262,-6.240103
-21.645894,-6.097262,-4.706619
-21.241024,-6.097262,-3.173134
-21.011745,-6.097262,-1.639650
-20.944959,-6.097262,-0.106165
-21.000675,-6.097262,1.427319
-21.129627,-6.097262,2.960804
-21.290883,-6.097262,4.494288
-21.469468,-6.097262,6.027773
-21.693970,-6.097262,7.561257
-22.054161,-6.097262,9.094742
-22.718613,-6.097262,10.628226
-22.836837,-5.226224,-12.374042
-23.405023,-5.226224,-10.840557
-23.241231,-5.226224,-9.307073
-22.719515,-5.226224,-7.773588
-22.100686,-5.226224,-6.240103
-21.549927,-5.226224,-4.706619
-21.154404,-5.226224,-3.173134
-20.940888,-5.226224,-1.639650
-20.893364,-5.226224,-0.106165
-20.970647,-5.226224,1.427319
-21.124001,-5.226224,2.960804
-21.314750,-5.226224,4.494288
-21.531893,-5.226224,6.027773
-21.809720,-5.226224,7.561257
-22.245431,-5.226224,9.094742
-23.016743,-5.226224,10.628226
-21.321343,-4.355187,-13.907526
-22.957661,-4.355187,-12.374042
-23.413242,-4.355187,-10.840557
-23.180175,-4.355187,-9.307073
-22.621409,-4.355187,-7.773588
-21.988378,-4.355187,-6.240103
-21.438607,-4.355187,-4.706619
-21.053331,-4.355187,-3.173134
-20.855113,-4.355187,-1.639650
-20.825452,-4.355187,-0.106165
-20.922404,-4.355187,1.427319
-21.098195,-4.355187,2.960804
-21.316835,-4.355187,4.494288
-21.571734,-4.355187,6.027773
-21.903317,-4.355187,7.561257
-22.416639,-4.355187,9.094742
-23.299000,-4.355187,10.628226
-21.548770,-3.484149,-13.907526
-23.032164,-3.484149,-12.374042
-23.387110,-3.484149,-10.840557
-23.093301,-3.484149,-9.307073
-22.503018,-3.484149,-7.773588
-21.858746,-3.484149,-6.240103
-21.310788,-3.484149,-4.706619
-20.934881,-3.484149,-3.173134
-20.749810,-3.484149,-1.639650
-20.735024,-3.484149,-0.106165
-20.848251,-3.484149,1.427319
-21.043111,-3.484149,2.960804
-21.286735,-3.484149,4.494288
-21.577374,-3.484149,6.027773
-21.962022,-3.484149,7.561257
-22.554022,-3.484149,9.094742
-21.720219,-2.613112,-13.907526
-23.064063,-2.613112,-12.374042
-23.327972,-2.613112,-10.840557
-22.979680,-2.613112,-9.307073
-22.361230,-2.613112,-7.773588
-21.706592,-2.613112,-6.240103
-21.159280,-2.613112,-4.706619
-20.789964,-2.613112,-3.173134
-20.614086,-2.613112,-1.639650
-20.609476,-2.613112,-0.106165
-20.733966,-2.613112,1.427319
-20.943006,-2.613112,2.960804
-21.207276,-2.613112,4.494288
-21.530306,-2.613112,6.027773
-21.966087,-2.613112,7.561257
-22.636688,-2.613112,9.094742
-21.836203,-1.742075,-13.907526
-23.051284,-1.742075,-12.374042
-23.231266,-1.742075,-10.840557
-22.832353,-1.742075,-9.307073
-22.186784,-1.742075,-7.773588
-21.520447,-1.742075,-6.240103
-20.970499,-1.742075,-4.706619
-20.602976,-1.742075,-3.173134
-20.430410,-1.742075,-1.639650
-20.429445,-1.742075,-0.106165
-20.558450,-1.742075,1.427319
-20.775136,-1.742075,2.960804
-21.054168,-1.742075,4.494288
-21.404783,-1.742075,6.027773
-21.888407,-1.742075,7.561257
-22.636261,-1.742075,9.094742
-21.891214,-0.871037,-13.907526
-22.985615,-0.871037,-12.374042
-23.086168,-0.871037,-10.840557
-22.637979,-0.871037,-9.307073
-21.963916,-0.871037,-7.773588
-21.282219,-0.871037,-6.240103
-20.724118,-0.871037,-4.706619
-20.351451,-0.871037,-3.173134
-20.174270,-0.871037,-1.639650
-20.168467,-0.871037,-0.106165
-20.293380,-0.871037,1.427319
-20.509414,-0.871037,2.960804
-20.795652,-0.871037,4.494288
-21.167473,-0.871037,6.027773
-21.694165,-0.871037,7.561257
-22.516541,-0.871037,9.094742
-21.873378,0.000000,-13.907526
-22.852357,0.000000,-12.374042
-22.875246,0.000000,-10.840557
-22.376489,0.000000,-9.307073
-21.670013,0.000000,-7.773588
-20.966844,0.000000,-6.240103
-20.392721,0.000000,-4.706619
-20.005709,0.000000,-3.173134
-19.813820,0.000000,-1.639650
-19.792623,0.000000,-0.106165
-19.902859,0.000000,1.427319
-20.108060,0.000000,2.960804
-20.392158,0.000000,4.494288
-20.777107,0.000000,6.027773
-21.340493,0.000000,7.561257
-22.233148,0.000000,9.094742
-14.676867,-17.575360,-12.374042
-14.676867,-17.610910,-10.840557
-14.676867,-17.640628,-9.307073
-14.676867,-17.664514,-7.773588
-14.676867,-17.682567,-6.240103
-14.676867,-17.694789,-4.706619
-14.676867,-17.701178,-3.173134
-14.676867,-17.701736,-1.639650
-14.676867,-17.696461,-0.106165
-14.676867,-17.685354,1.427319
-14.676867,-17.668416,2.960804
-14.676867,-17.645645,4.494288
-14.676867,-17.617042,6.027773
-14.676867,-17.582607,7.561257
-14.676867,-17.542340,9.094742
-13.863061,-17.739898,-12.374042
-13.863061,-17.762225,-10.840557
-13.863061,-17.778720,-9.307073
-13.863061,-17.789382,-7.773588
-13.863061,-17.794213,-6.240103
-13.863061,-17.793211,-4.706619
-13.863061,-17.786377,-3.173134
-13.863061,-17.773712,-1.639650
-13.863061,-17.755214,-0.106165
-13.863061,-17.730884,1.427319
-13.863061,-17.700722,2.960804
-13.863061,-17.664728,4.494288
-13.863061,-17.622902,6.027773
-13.863061,-17.575243,7.561257
-13.863061,-17.521753,9.094742
-13.863061,-17.462431,10.628226
-13.049255,-17.884157,-12.374042
-13.049255,-17.893260,-10.840557
-13.049255,-17.896532,-9.307073
-13.049255,-17.893971,-7.773588
-13.049255,-17.885578,-6.240103
-13.049255,-17.871353,-4.706619
-13.049255,-17.851296,-3.173134
-13.049255,-17.825407,-1.639650
-13.049255,-17.793686,-0.106165
-13.049255,-17.756133,1.427319
-13.049255,-17.712748,2.960804
-13.049255,-17.663531,4.494288
-13.049255,-17.608481,6.027773
-13.049255,-17.547600,7.561257
-13.049255,-17.480886,9.094742
-13.049255,-17.408341,10.628226
-12.235449,-18.008135,-12.374042
-12.235449,-18.004016,-10.840557
-12.235449,-17.994064,-9.307073
-12.235449,-17.978280,-7.773588
-12.235449,-17.956664,-6.240103
-12.235449,-17.929216,-4.706619
-12.235449,-17.895936,-3.173134
-12.235449,-17.856824,-1.639650
-12.235449,-17.811879,-0.106165
-12.235449,-17.761103,1.427319
-12.235449,-17.704494,2.960804
-12.235449,-17.642054,4.494288
-12.235449,-17.573781,6.027773
-12.235449,-17.499677,7.561257
-12.235449,-17.419740,9.094742
-11.421644,-18.111834,-12.374042
-11.421644,-18.094491,-10.840557
-11.421644,-18.071316,-9.307073
-11.421644,-18.042309,-7.773588
-11.421644,-18.007470,-6.240103
-11.421644,-17.966799,-4.706619
-11.421644,-17.920295,-3.173134
-11.421644,-17.867960,-1.639650
-11.421644,-17.809792,-0.106165
-11.421644,-17.745793,1.427319
-11.421644,-17.675961,2.960804
-11.421644,-17.600297,4.494288
-11.421644,-17.518802,6.027773
-11.421644,-17.431474,7.561257
-11.421644,-17.338314,9.094742
-10.607838,-18.195253,-12.374042
-10.607838,-18.164687,-10.840557
-10.607838,-18.128289,-9.307073
-10.607838,-18.086058,-7.773588
-10.607838,-18.037996,-6.240103
-10.607838,-17.984102,-4.706619
-10.607838,-17.924375,-3.173134
-10.607838,-17.858816,-1.639650
-10.607838,-17.787426,-0.106165
-10.607838,-17.710203,1.427319
-10.607838,-17.627148,2.960804
-10.607838,-17.538261,4.494288
-10.607838,-17.443542,6.027773
-10.607838,-17.342991,7.561257
-10.607838,-17.236608,9.094742
-9.794032,-18.258392,-12.374042
-9.794032,-18.214603,-10.840557
-9.794032,-18.164982,-9.307073
-9.794032,-18.109528,-7.773588
-9.794032,-18.048242,-6.240103
-9.794032,-17.981125,-4.706619
-9.794032,-17.908175,-3.173134
-9.794032,-17.829393,-1.639650
-9.794032,-17.744779,-0.106165
-9.794032,-17.654333,1.427319
-9.794032,-17.558055,2.960804
-9.794032,-17.455945,4.494288
-9.794032,-17.348003,6.027773
-9.794032,-17.234228,7.561257
-9.794032,-17.114622,9.094742
-8.980226,-18.301252,-12.374042
-8.980226,-18.244239,-10.840557
-8.980226,-18.181394,-9.307073
-8.980226,-18.112718,-7.773588
-8.980226,-18.038209,-6.240103
-8.980226,-17.957868,-4.706619
-8.980226,-17.871695,-3.173134
-8.980226,-17.779690,-1.639650
-8.980226,-17.681853,-0.106165
-8.980226,-17.578184,1.427319
-8.980226,-17.468682,2.960804
-8.980226,-17.353349,4.494288
-8.980226,-17.232184,6.027773
-8.980226,-17.105186,7.561257
-8.980226,-16.972356,9.094742
-8.980226,-16.833695,10.628226
-8.166420,-18.323831,-12.374042
-8.166420,-18.253596,-10.840557
-8.166420,-18.177528,-9.307073
-8.166420,-18.095628,-7.773588
-8.166420,-18.007896,-6.240103
-8.166420,-17.914331,-4.706619
-8.166420,-17.814935,-3.173134
-8.166420,-17.709707,-1.639650
-8.166420,-17.598647,-0.106165
-8.166420,-17.481754,1.427319
-8.166420,-17.359030,2.960804
-8.166420,-17.230473,4.494288
-8.166420,-17.096085,6.027773
-8.166420,-16.955864,7.561257
-8.166420,-16.809811,9.094742
-8.166420,-16.657926,10.628226
-7.352614,-18.326131,-12.374042
-7.352614,-18.242672,-10.840557
-7.352614,-18.153381,-9.307073
-7.352614,-18.058258,-7.773588
-7.352614,-17.957303,-6.240103
-7.352614,-17.850515,-4.706619
-7.352614,-17.737896,-3.173134
-7.352614,-17.619444,-1.639650
-7.352614,-17.495161,-0.106165
-7.352614,-17.365045,1.427319
-7.352614,-17.229097,2.960804
-7.352614,-17.087318,4.494288
-7.352614,-16.939706,6.027773
-7.352614,-16.786262,7.561257
-7.352614,-16.626986,9.094742
-7.352614,-16.461878,10.628226
-6.538809,-18.308151,-12.374042
-6.538809,-18.211469,-10.840557
-6.538809,-18.108955,-9.307073
-6.538809,-18.000608,-7.773588
-6.538809,-17.886430,-6.240103
-6.538809,-17.766419,-4.706619
-6.538809,-17.640577,-3.173134
-6.538809,-17.508902,-1.639650
-6.538809,-17.371395,-0.106165
-6.538809,-17.228056,1.427319
-6.538809,-17.078885,2.960804
-6.538809,-16.923882,4.494288
-6.538809,-16.763047,6.027773
-6.538809,-16.596380,7.561257
-6.538809,-16.423881,9.094742
-6.538809,-16.245550,10.628226
-5.725003,-18.269891,-12.374042
-5.725003,-18.159986,-10.840557
-5.725003,-18.044248,-9.307073
-5.725003,-17.922679,-7.773588
-5.725003,-17.795277,-6.240103
-5.725003,-17.662043,-4.706619
-5.725003,-17.522977,-3.173134
-5.725003,-17.378080,-1.639650
-5.725003,-17.227350,-0.106165
-5.725003,-17.070788,1.427319
-5.725003,-16.908393,2.960804
-5.725003,-16.740167,4.494288
-5.725003,-16.566109,6.027773
-5.725003,-16.386219,7.561257
-5.725003,-16.200496,9.094742
-5.725003,-16.008942,10.628226
-4.911197,-18.211352,-12.374042
-4.911197,-18.088223,-10.840557
-4.911197,-17.959262,-9.307073
-4.911197,-17.824469,-7.773588
-4.911197,-17.683845,-6.240103
-4.911197,-17.537388,-4.706619
-4.911197,-17.385099,-3.173134
-4.911197,-17.226977,-1.639650
-4.911197,-17.063024,-0.106165
-4.911197,-16.893239,1.427319
-4.911197,-16.717622,2.960804
-4.911197,-16.536172,4.494288
-4.911197,-16.348891,6.027773
-4.911197,-16.155777,7.561257
-4.911197,-15.956832,9.094742
-4.911197,-15.752054,10.628226
-4.097391,-18.132532,-12.374042
-4.097391,-17.996180,-10.840557
-4.097391,-17.853996,-9.307073
-4.097391,-17.705980,-7.773588
-4.097391,-17.552132,-6.240103
-4.097391,-17.392452,-4.706619
-4.097391,-17.226940,-3.173134
-4.097391,-17.055596,-1.639650
-4.097391,-16.878419,-0.106165
-4.097391,-16.695411,1.427319
-4.097391,-16.506570,2.960804
-4.097391,-16.311897,4.494288
-4.097391,-16.111393,6.027773
-4.097391,-15.905056,7.561257
-4.097391,-15.692887,9.094742
-4.097391,-15.474886,10.628226
-3.283585,-18.033433,-12.374042
-3.283585,-17.883858,-10.840557
-3.283585,-17.728451,-9.307073
-3.283585,-17.567212,-7.773588
-3.283585,-17.400140,-6.240103
-3.283585,-17.227237,-4.706619
-3.283585,-17.048501,-3.173134
-3.283585,-16.863934,-1.639650
-3.283585,-16.673534,-0.106165
-3.283585,-16.477303,1.427319
-3.283585,-16.275239,2.960804
-3.283585,-16.067343,4.494288
-3.283585,-15.853615,6.027773
-3.283585,-15.634055,7.561257
-3.283585,-15.408663,9.094742
-3.283585,-15.177439,10.628226
-2.469779,-17.914054,-12.374042
-2.469779,-17.751256,-10.840557
-2.469779,-17.582625,-9.307073
-2.469779,-17.408163,-7.773588
-2.469779,-17.227868,-6.240103
-2.469779,-17.041742,-4.706619
-2.469779,-16.849783,-3.173134
-2.469779,-16.651992,-1.639650
-2.469779,-16.448370,-0.106165
-2.469779,-16.238915,1.427319
-2.469779,-16.023628,2.960804
-2.469779,-15.802509,4.494288
-2.469779,-15.575557,6.027773
-2.469779,-15.342774,7.561257
-2.469779,-15.104159,9.094742
-2.469779,-14.859712,10.628226
-1.655974,-17.774395,-12.374042
-1.655974,-17.598374,-10.840557
-1.655974,-17.416520,-9.307073
-1.655974,-17.228835,-7.773588
-1.655974,-17.035317,-6.240103
-1.655974,-16.835967,-4.706619
-1.655974,-16.630785,-3.173134
-1.655974,-16.419771,-1.639650
-1.655974,-16.202925,-0.106165
-1.655974,-15.980247,1.427319
-1.655974,-15.751737,2.960804
-1.655974,-15.517394,4.494288
-1.655974,-15.277220,6.027773
-1.655974,-15.031214,7.561257
-1.655974,-14.779375,9.094742
-1.655974,-14.521705,10.628226
-0.842168,-17.614457,-12.374042
-0.842168,-17.425212,-10.840557
-0.842168,-17.230135,-9.307073
-0.842168,-17.029226,-7.773588
-0.842168,-16.822485,-6.240103
-0.842168,-16.609912,-4.706619
-0.842168,-16.391507,-3.173134
-0.842168,-16.167270,-1.639650
-0.842168,-15.937201,-0.106165
-0.842168,-15.701299,1.427319
-0.842168,-15.459566,2.960804
-0.842168,-15.212001,4.494288
-0.842168,-14.958603,6.027773
-0.842168,-14.699373,7.561257
-0.842168,-14.434312,9.094742
-0.842168,-14.163418,10.628226
-0.028362,-17.434238,-12.374042
-0.028362,-17.231770,-10.840557
-0.028362,-17.023470,-9.307073
-0.028362,-16.809338,-7.773588
-0.028362,-16.589374,-6.240103
-0.028362,-16.363578,-4.706619
-0.028362,-16.131949,-3.173134
-0.028362,-15.894489,-1.639650
-0.028362,-15.651197,-0.106165
-0.028362,-15.402072,1.427319
-0.028362,-15.147115,2.960804
-0.028362,-14.886327,4.494288
-0.028362,-14.619706,6.027773
-0.028362,-14.347253,7.561257
-0.028362,-14.068968,9.094742
-0.028362,-13.784851,10.628226
-6.976994,-16.970126,-12.374042
-10.956812,-16.994513,-10.840557
-13.285964,-17.015983,-9.307073
-14.522223,-17.034538,-7.773588
-15.087712,-17.050176,-6.240103
-15.286513,-17.062898,-4.706619
-15.322288,-17.072705,-3.173134
-15.315894,-17.079595,-1.639650
-15.322992,-17.083569,-0.106165
-15.351669,-17.084628,1.427319
-15.380049,-17.082770,2.960804
-15.373908,-17.077996,4.494288
-15.304292,-17.070306,6.027773
-15.165128,-17.059700,7.561257
-14.990843,-17.046178,9.094742
-14.873975,-17.029740,10.628226
-0.474639,-19.049423,-12.801289
-0.474639,-17.102247,-12.901340
-0.474639,-15.213196,-12.813722
-0.474639,-13.358584,-12.614911
-0.474639,-11.518258,-12.369978
-0.474639,-9.675594,-12.132591
-0.474639,-7.817503,-11.945014
-0.474639,-5.934426,-11.838108
-0.474639,-4.020337,-11.831330
-0.474639,-2.072741,-11.932733
-0.474639,-0.092677,-12.138968
-0.474639,1.915286,-12.435279
-0.474639,3.943046,-12.795510
-0.474639,5.978970,-13.182100
-0.474639,8.007893,-13.546083
-0.474639,10.011116,-13.827091
-0.474639,11.966410,-13.953352
-0.474639,13.848014,-13.841690
-0.474639,15.626634,-13.397527
-0.474639,17.269445,-12.514878
-1.513055,-19.341417,-12.559766
-1.513055,-17.327703,-12.821494
-1.513055,-15.390273,-12.836924
-1.513055,-13.501270,-12.695997
-1.513055,-11.636869,-12.475640
-1.513055,-9.777272,-12.239769
-1.513055,-7.906716,-12.039286
-1.513055,-6.013464,-11.912078
-1.513055,-4.089813,-11.883021
-1.513055,-2.132088,-11.963977
-1.513055,-0.140646,-12.153794
-1.513055,1.880126,-12.438308
-1.513055,3.921810,-12.790342
-1.513055,5.971959,-13.169704
-1.513055,8.014093,-13.523189
-1.513055,10.027703,-13.784581
-1.513055,11.988251,-13.874650
-1.513055,13.867165,-13.701150
-1.513055,15.631845,-13.158825
-1.513055,17.245660,-12.129404
-2.551471,-19.645787,-12.436209
-2.551471,-17.576306,-12.833752
-2.551471,-15.600221,-12.929752
-2.551471,-13.685515,-12.827576
-2.551471,-11.804706,-12.615958
-2.551471,-9.934843,-12.368998
-2.551471,-8.057509,-12.146162
-2.551471,-6.158817,-11.992282
-2.551471,-4.229413,-11.937559
-2.551471,-2.264478,-11.997557
-2.551471,-0.263722,-12.173209
-2.551471,1.768611,-12.450814
-2.551471,3.823745,-12.802037
-2.551471,5.888372,-13.183908
-2.551471,7.944651,-13.538827
-2.551471,9.970208,-13.794557
-2.551471,11.938140,-13.864228
-2.551471,13.817006,-13.646340
-2.551471,15.570839,-13.024754
-2.551471,17.159134,-11.868701
-3.589887,-19.939077,-12.385729
-3.589887,-17.825315,-12.894443
-3.589887,-15.820459,-13.051531
-3.589887,-13.888520,-12.973191
-3.589887,-11.998529,-12.759418
-3.589887,-10.124533,-12.494001
-3.589887,-8.245600,-12.244523
-3.589887,-6.345816,-12.062365
-3.589887,-4.414288,-11.982701
-3.589887,-2.445140,-12.024500
-3.589887,-0.437515,-12.190527
-3.589887,1.604423,-12.467342
-3.589887,3.671494,-12.825301
-3.589887,5.749495,-13.218553
-3.589887,7.819208,-13.585044
-3.589887,9.856394,-13.846515
-3.589887,11.831794,-13.908500
-3.589887,13.711133,-13.660331
-3.589887,15.455113,-12.975134
-3.589887,17.019420,-11.709830
-4.628303,-20.196095,-12.384691
-4.628303,-18.051263,-12.977601
-4.628303,-16.028482,-13.176446
-4.628303,-14.088181,-13.108988
-4.628303,-12.196258,-12.885335
-4.628303,-10.324079,-12.597934
-4.628303,-8.448479,-12.321579
-4.628303,-6.551762,-12.113406
-4.628303,-4.621699,-12.012893
-4.628303,-2.651533,-12.041863
-4.628303,-0.639972,-12.204481
-4.628303,1.408804,-12.487256
-4.628303,3.485148,-12.859040
-4.628303,5.573944,-13.271029
-4.628303,7.654608,-13.656760
-4.628303,9.701086,-13.932116
-4.628303,11.681856,-13.995321
-4.628303,13.559928,-13.726944
-4.628303,15.292840,-12.989897
-4.628303,16.832666,-11.629434
-5.666720,-20.392366,-12.422774
-5.666720,-18.231873,-13.068801
-5.666720,-16.203332,-13.288798
-5.666720,-14.264211,-13.220084
-5.666720,-12.377838,-12.981068
-5.666720,-10.513395,-12.671244
-5.666720,-8.645924,-12.371195
-5.666720,-6.756325,-12.142592
-5.666720,-4.831354,-12.028195
-5.666720,-2.863624,-12.051850
-5.666720,-0.851609,-12.218491
-5.666720,1.200364,-12.514143
-5.666720,3.282108,-12.905914
-5.666720,5.377579,-13.342005
-5.666720,7.464875,-13.751701
-5.666720,9.516236,-14.045378
-5.666720,11.498047,-14.114497
-5.666720,13.370832,-13.831608
-5.666720,15.089261,-13.050351
-5.666720,16.602144,-11.605451
-6.705136,-20.506178,-12.496388
-6.705136,-18.347529,-13.160405
-6.705136,-16.326640,-13.379636
-6.705136,-14.398871,-13.298216
-6.705136,-12.525740,-13.040385
-6.705136,-10.674928,-12.710493
-6.705136,-8.820276,-12.392997
-6.705136,-6.941788,-12.152463
-6.705136,-5.025626,-12.033564
-6.705136,-3.064116,-12.061081
-6.705136,-1.055743,-12.239904
-6.705136,0.994847,-12.555030
-6.705136,3.076845,-12.971565
-6.705136,5.173283,-13.434722
-6.705136,7.261031,-13.869821
-6.705136,9.310799,-14.182294
-6.705136,11.287134,-14.257676
-6.705136,13.148423,-13.961613
-6.705136,14.846894,-13.139858
-6.705136,16.328610,-11.618273
-7.743552,-20.520272,-12.603200
-7.743552,-18.382415,-13.247869
-7.743552,-16.383369,-13.444359
-7.743552,-14.477433,-13.340229
-7.743552,-12.625259,-13.062514
-7.743552,-10.793861,-12.717725
-7.743552,-8.956603,-12.391853
-7.743552,-7.093209,-12.150366
-7.743552,-5.189759,-12.038207
-7.743552,-3.238688,-12.079801
-7.743552,-1.238789,-12.279047
-7.743552,0.804791,-12.619322
-7.743552,2.880546,-13.063482
-7.743552,4.970616,-13.553860
-7.743552,7.050783,-14.012266
-7.743552,9.090475,-14.339988
-7.743552,11.052760,-14.417791
-7.743552,12.894354,-14.105918
-7.743552,14.565613,-13.244089
-7.743552,16.010539,-11.651503
-8.781968,-20.423082,-12.738146
-8.781968,-18.325299,-13.327232
-8.781968,-16.362276,-13.481224
-8.781968,-14.488447,-13.347235
-8.781968,-12.664671,-13.051642
-8.781968,-10.858231,-12.700077
-8.781968,-9.042833,-12.377433
-8.781968,-7.198609,-12.147863
-8.781968,-5.312112,-12.054775
-8.781968,-3.376321,-12.120842
-8.781968,-1.390639,-12.347990
-8.781968,0.639107,-12.717409
-8.781968,2.700667,-13.189544
-8.781968,4.775366,-13.704102
-8.781968,6.838106,-14.180048
-8.781968,8.857364,-14.515606
-8.781968,10.795195,-14.588257
-8.781968,12.607227,-14.254746
-8.781968,14.242665,-13.351072
-8.781968,15.644293,-11.692495
-9.820384,-20.209339,-12.891461
-9.820384,-18.169860,-13.394053
-9.820384,-16.256078,-13.490812
-9.820384,-14.423831,-13.324319
-9.820384,-12.635309,-13.016653
-9.820384,-10.859051,-12.669390
-9.820384,-9.069948,-12.363601
-9.820384,-7.249240,-12.159852
-9.820384,-5.384519,-12.098208
-9.820384,-3.469727,-12.198228
-9.820384,-1.505156,-12.458967
-9.820384,0.502551,-12.858978
-9.820384,2.540400,-13.356309
-9.820384,4.589047,-13.888504
-9.820384,6.622798,-14.372603
-9.820384,8.609607,-14.705144
-9.820384,10.511079,-14.762159
-9.820384,12.282469,-14.399176
-9.820384,13.872678,-13.451222
-9.820384,15.224261,-11.732817
-10.858800,-19.879929,-13.049155
-10.858800,-17.914530,-13.443914
-10.858800,-16.061338,-13.476392
-10.858800,-14.278839,-13.280627
-10.858800,-12.531646,-12.970867
-10.858800,-10.790506,-12.641568
-10.858800,-9.032292,-12.367391
-10.858800,-7.240011,-12.203208
-10.858800,-5.402798,-12.184095
-10.858800,-3.515919,-12.325339
-10.858800,-1.580769,-12.622433
-10.858800,0.395125,-13.051078
-10.858800,2.398107,-13.567183
-10.858800,4.408392,-14.106864
-10.858800,6.400062,-14.586444
-10.858800,8.341071,-14.902456
-10.858800,10.193242,-14.931638
-10.858800,11.912268,-14.530939
-10.858800,13.447712,-13.537512
-10.858800,14.743008,-11.768719
-11.897216,-19.441035,-13.195775
-11.897216,-17.561930,-13.474249
-11.897216,-15.778178,-13.444854
-11.897216,-14.052025,-13.229492
-11.897216,-12.351481,-12.931446
-11.897216,-10.650323,-12.635382
-11.897216,-8.928095,-12.407348
-11.897216,-7.170106,-12.294775
-11.897216,-5.367432,-12.326474
-11.897216,-3.516915,-12.512643
-11.897216,-1.621164,-12.844859
-11.897216,0.311446,-13.296081
-11.897216,2.266774,-13.820654
-11.897216,4.224914,-14.354301
-11.897216,6.160190,-14.814131
-11.897216,8.041163,-15.098634
-11.897216,9.830627,-15.087682
-11.897216,11.485608,-14.642530
-11.897216,12.957369,-13.605816
-11.897216,14.191403,-11.801559
-12.935633,-18.902816,-13.318680
-12.935633,-17.118126,-13.486742
-12.935633,-15.410013,-13.407561
-12.935633,-13.745368,-13.188036
-12.935633,-12.096355,-12.918041
-12.935633,-10.440409,-12.670431
-12.935633,-8.760237,-12.501037
-12.935633,-7.043821,-12.448665
-12.935633,-5.284412,-12.535102
-12.935633,-3.480536,-12.765110
-12.935633,-1.635991,-13.126427
-12.935633,0.240155,-13.589772
-12.935633,2.133559,-14.108837
-12.935633,4.024606,-14.620293
-12.935633,5.888411,-15.043790
-12.935633,7.694812,-15.281952
-12.935633,9.408380,-15.220382
-12.935633,10.988409,-14.727661
-12.935633,12.388924,-13.655345
-12.935633,13.558676,-11.837968
-13.974049,-18.278078,-13.412309
-13.974049,-16.592071,-13.489133
-13.974049,-14.963588,-13.380233
-13.974049,-13.364744,-13.175637
-13.974049,-11.772327,-12.950291
-13.974049,-10.167796,-12.764058
-13.974049,-8.537282,-12.661716
-13.974049,-6.871586,-12.672964
-13.974049,-5.166183,-12.812414
-13.974049,-3.421217,-13.079599
-13.974049,-1.641506,-13.458966
-13.974049,0.163462,-13.919880
-13.974049,1.979528,-14.416624
-13.974049,3.787860,-14.888398
-13.974049,5.564955,-15.259318
-13.974049,7.282638,-15.438418
-13.974049,8.908065,-15.319648
-13.974049,10.403716,-14.781877
-13.974049,11.727404,-13.688890
-13.974049,12.832268,-11.889388
-15.012465,-17.581514,-13.480661
-15.012465,-15.995641,-13.495103
-15.012465,-14.449586,-13.380989
-15.012465,-12.920909,-13.210763
-15.012465,-11.391168,-13.043974
-15.012465,-9.845916,-12.927265
-15.012465,-8.274701,-12.894382
-15.012465,-6.671066,-12.966169
-15.012465,-5.032553,-13.150573
-15.012465,-3.360694,-13.442635
-15.012465,-1.661022,-13.824501
-15.012465,0.056939,-14.265413
-15.012465,1.779666,-14.721714
-15.012465,3.489642,-15.136846
-15.012465,5.165355,-15.441353
-15.012465,6.781296,-15.552876
-15.012465,8.307961,-15.376156
-15.012465,9.711851,-14.803033
-15.012465,10.955471,-13.712450
-15.012465,11.997331,-11.970446
-16.050881,-16.830020,-13.536260
-16.050881,-15.344580,-13.521213
-16.050881,-13.883963,-13.426019
-16.050881,-12.431028,-13.306023
-16.050881,-10.971915,-13.205971
-16.050881,-9.496049,-13.160011
-16.050881,-7.996136,-13.191691
-16.050881,-6.468165,-13.313964
-16.050881,-4.911405,-13.529184
-16.050881,-3.328411,-13.829106
-16.050881,-1.725019,-14.194888
-16.050881,-0.110347,-14.597089
-16.050881,1.503205,-14.995672
-16.050881,3.099952,-15.340000
-16.050881,4.660930,-15.568839
-16.050881,6.163889,-15.610356
-16.050881,7.583301,-15.382122
-16.050881,8.890350,-14.791108
-16.050881,10.052943,-13.733688
-16.050881,11.035700,-12.095637
-17.089297,-16.044363,-13.594773
-17.089297,-14.660454,-13.580600
-17.089297,-13.289977,-13.523058
-17.089297,-11.920605,-13.461946
-17.089297,-10.542585,-13.428759
-17.089297,-9.148735,-13.446681
-17.089297,-7.734448,-13.530589
-17.089297,-6.297688,-13.687050
-17.089297,-4.838996,-13.914326
-17.089297,-3.361484,-14.202368
-17.089297,-1.870836,-14.532820
-17.089297,-0.375311,-14.879017
-17.089297,1.114258,-15.205986
-17.089297,2.584467,-15.470447
-17.089297,4.019338,-15.620810
-17.089297,5.400317,-15.597178
-17.089297,6.706282,-15.331345
-17.089297,7.913533,-14.746797
-17.089297,8.995799,-13.758713
-17.089297,9.924235,-12.273962
-18.127713,-15.252083,-13.665642
-18.127713,-13.973357,-13.674247
-18.127713,-12.700564,-13.663695
-18.127713,-11.425450,-13.660639
-18.127713,-10.141667,-13.685571
-18.127713,-8.844776,-13.752824
-18.127713,-7.532247,-13.870567
-18.127713,-6.203457,-14.040813
-18.127713,-4.859690,-14.259411
-18.127713,-3.504142,-14.516051
-18.127713,-2.141912,-14.794262
-18.127713,-0.780011,-15.071413
-18.127713,0.572645,-15.318712
-18.127713,1.905228,-15.501206
-18.127713,3.205007,-15.577782
-18.127713,4.457338,-15.501166
-18.127713,5.645673,-15.217925
-18.127713,6.751552,-14.668463
-18.127713,7.754611,-13.787025
-18.127713,8.632575,-12.501695
-19.166129,-14.491021,-13.740689
-19.166129,-13.324767,-13.781757
-19.166129,-12.160501,-13.816401
-19.166129,-10.993152,-13.861003
-19.166129,-9.818966,-13.927677
-19.166129,-8.635514,-14.024270
-19.166129,-7.441687,-14.154359
-19.166129,-6.237699,-14.317255
-19.166129,-5.025085,-14.508001
-19.166129,-3.806703,-14.717372
-19.166129,-2.586731,-14.931874
-19.166129,-1.370671,-15.133748
-19.166129,-0.165345,-15.300964
-19.166129,1.021102,-15.407225
-19.166129,2.179204,-15.421969
-19.166129,3.298172,-15.310362
-19.166129,4.365895,-15.033304
-19.166129,5.368943,-14.547428
-19.166129,6.292561,-13.805099
-19.166129,7.120674,-12.754412
-20.204545,-13.812519,-13.783789
-20.204545,-12.769718,-13.854330
-20.204545,-11.727670,-13.922440
-20.204545,-10.683565,-13.997190
-20.204545,-9.635435,-14.084936
-20.204545,-8.582152,-14.189321
-20.204545,-7.523426,-14.311276
-20.204545,-6.459812,-14.449017
-20.204545,-5.392700,-14.598049
-20.204545,-4.324325,-14.751160
-20.204545,-3.257759,-14.898429
-20.204545,-2.196917,-15.027220
-20.204545,-1.146552,-15.122181
-20.204545,-0.112259,-15.165252
-20.204545,0.899527,-15.135656
-20.204545,1.881531,-15.009904
-20.204545,2.825638,-14.761792
-20.204545,3.722892,-14.362406
-20.204545,4.563495,-13.780117
-20.204545,5.336813,-12.980581
0.000000,-12.484377,12.510059
0.000000,-10.841791,12.499133
0.000000,-9.199205,12.218585
0.000000,-7.556618,11.777202
0.000000,-5.914032,11.263532
0.000000,-4.271446,10.747268
0.000000,-2.628860,10.280645
0.000000,-0.986273,9.899825
0.000000,0.656313,9.626291
0.000000,2.298899,9.468234
0.000000,3.941485,9.421948
0.000000,5.584072,9.473216
0.000000,7.226658,9.598704
0.000000,8.869244,9.767346
0.000000,10.511830,9.941742
0.000000,12.154417,10.079542
0.000000,13.797003,10.134840
0.000000,15.439589,10.059560
0.000000,17.082175,9.804854
0.000000,18.724762,9.322485
-1.088378,-14.824253,11.812614
-1.088378,-13.033779,12.458871
-1.088378,-11.243306,12.569935
-1.088378,-9.452832,12.324023
-1.088378,-7.662358,11.868075
-1.088378,-5.871885,11.319891
-1.088378,-4.081411,10.770271
-1.088378,-2.290938,10.285158
-1.088378,-0.500464,9.907770
-1.088378,1.290009,9.660749
-1.088378,3.080483,9.548292
-1.088378,4.870957,9.558297
-1.088378,6.661430,9.664500
-1.088378,8.451904,9.828613
-1.088378,10.242377,10.002467
-1.088378,12.032851,10.130149
-1.088378,13.823325,10.150144
-1.088378,15.613798,9.997472
-1.088378,17.404272,9.605829
-1.088378,19.194745,8.909726
-2.176756,-15.470046,11.515840
-2.176756,-13.635279,12.403307
-2.176756,-11.800513,12.660040
-2.176756,-9.965746,12.489936
-2.176756,-8.130980,12.061385
-2.176756,-6.296213,11.509681
-2.176756,-4.461447,10.939444
-2.176756,-2.626680,10.427034
-2.176756,-0.791914,10.022974
-2.176756,1.042853,9.754362
-2.176756,2.877619,9.627292
-2.176756,4.712386,9.629271
-2.176756,6.547152,9.731636
-2.176756,8.381919,9.891974
-2.176756,10.216685,10.056535
-2.176756,12.051451,10.162656
-2.176756,13.886218,10.141172
-2.176756,15.720984,9.918839
-2.176756,17.555751,9.420749
-2.176756,19.390517,8.572748
-3.265134,-15.454858,11.704084
-3.265134,-13.621239,12.546994
-3.265134,-11.787620,12.767238
-3.265134,-9.954001,12.568543
-3.265134,-8.120382,12.118948
-3.265134,-6.286764,11.553210
-3.265134,-4.453145,10.975216
-3.265134,-2.619526,10.460393
-3.265134,-0.785907,10.058118
-3.265134,1.047712,9.794127
-3.265134,2.881331,9.672930
-3.265134,4.714950,9.680212
-3.265134,6.548569,9.785253
-3.265134,8.382188,9.943331
-3.265134,10.215807,10.098136
-3.265134,12.049425,10.184179
-3.265134,13.883044,10.129201
-3.265134,15.716663,9.856586
-3.265134,17.550282,9.287766
-3.265134,19.383901,8.344638
-4.353512,-15.380509,11.973886
-4.353512,-13.558632,12.730156
-4.353512,-11.736755,12.887697
-4.353512,-9.914878,12.645450
-4.353512,-8.093001,12.167362
-4.353512,-6.271124,11.584712
-4.353512,-4.449247,10.998451
-4.353512,-2.627370,10.481535
-4.353512,-0.805493,10.081255
-4.353512,1.016384,9.821576
-4.353512,2.838261,9.705467
-4.353512,4.660138,9.717238
-4.353512,6.482015,9.824871
-4.353512,8.303892,9.982358
-4.353512,10.125769,10.132029
-4.353512,11.947646,10.206892
-4.353512,13.769523,10.132965
-4.353512,15.591399,9.831605
-4.353512,17.413276,9.221851
-4.353512,19.235153,8.222750
-5.441891,-15.528728,12.127457
-5.441891,-13.711797,12.875707
-5.441891,-11.894865,13.021022
-5.441891,-10.077934,12.763814
-5.441891,-8.261003,12.269398
-5.441891,-6.444072,11.670298
-5.441891,-4.627140,11.068546
-5.441891,-2.810209,10.537989
-5.441891,-0.993278,10.126586
-5.441891,0.823653,9.858716
-5.441891,2.640584,9.737475
-5.441891,4.457516,9.746983
-5.441891,6.274447,9.854683
-5.441891,8.091378,10.013647
-5.441891,9.908309,10.164874
-5.441891,11.725240,10.239597
-5.441891,13.542172,10.161582
-5.441891,15.359103,9.849431
-5.441891,17.176034,9.218887
-5.441891,18.992965,8.185134
-6.530269,-15.958470,12.106684
-6.530269,-14.134632,12.958716
-6.530269,-12.310793,13.163727
-6.530269,-10.486955,12.932788
-6.530269,-8.663116,12.440523
-6.530269,-6.839278,11.827457
-6.530269,-5.015439,11.202360
-6.530269,-3.191601,10.644599
-6.530269,-1.367762,10.206477
-6.530269,0.456077,9.915587
-6.530269,2.279915,9.777154
-6.530269,4.103754,9.776381
-6.530269,5.927592,9.880800
-6.530269,7.751431,10.042614
-6.530269,9.575269,10.201044
-6.530269,11.399108,10.284680
-6.530269,13.222946,10.213822
-6.530269,15.046785,9.902829
-6.530269,16.870623,9.262466
-6.530269,18.694462,8.202250
-7.618647,-16.589346,11.900667
-7.618647,-14.749633,12.957684
-7.618647,-12.909920,13.289734
-7.618647,-11.070207,13.126125
-7.618647,-9.230494,12.657342
-7.618647,-7.390781,12.037505
-7.618647,-5.551068,11.386813
-7.618647,-3.711355,10.794000
-7.618647,-1.871642,10.318781
-7.618647,-0.031929,9.994306
-7.618647,1.807784,9.829608
-7.618647,3.647497,9.812055
-7.618647,5.487210,9.909797
-7.618647,7.326923,10.074224
-7.618647,9.166636,10.242409
-7.618647,11.006349,10.339559
-7.618647,12.846062,10.281471
-7.618647,14.685775,9.976978
-7.618647,16.525489,9.330399
-7.618647,18.365202,8.243993
-8.707025,-17.271166,11.555216
-8.707025,-15.413780,12.871137
-8.707025,-13.556393,13.369532
-8.707025,-11.699007,13.300755
-8.707025,-9.841620,12.873633
-8.707025,-7.984234,12.258036
-8.707025,-6.126847,11.587447
-8.707025,-4.269461,10.961534
-8.707025,-2.412074,10.448720
-8.707025,-0.554688,10.088752
-8.707025,1.302699,9.895272
-8.707025,3.160085,9.858389
-8.707025,5.017472,9.947247
-8.707025,6.874858,10.112598
-8.707025,8.732245,10.289370
-8.707025,10.589631,10.399239
-8.707025,12.447018,10.353200
-8.707025,14.304404,10.054134
-8.707025,16.161791,9.399383
-8.707025,18.019177,8.283318
-9.795403,-17.839607,11.203774
-9.795403,-15.971269,12.748997
-9.795403,-14.102931,13.399399
-9.795403,-12.234593,13.422216
-9.795403,-10.366255,13.041086
-9.795403,-8.497917,12.438700
-9.795403,-6.629579,11.759441
-9.795403,-4.761241,11.112041
-9.795403,-2.892903,10.572219
-9.795403,-1.024564,10.185336
-9.795403,0.843774,9.969037
-9.795403,2.712112,9.915898
-9.795403,4.580450,9.996076
-9.795403,6.448788,10.159956
-9.795403,8.317126,10.340795
-9.795403,10.185464,10.457372
-9.795403,12.053802,10.416633
-9.795403,13.922140,10.116340
-9.795403,15.790478,9.447717
-9.795403,17.658816,8.298099
-10.883781,-18.157989,11.031485
-10.883781,-16.293096,12.680242
-10.883781,-14.428203,13.404273
-10.883781,-12.563310,13.476273
-10.883781,-10.698417,13.124898
-10.883781,-8.833524,12.537388
-10.883781,-6.968631,11.862187
-10.883781,-5.103738,11.211571
-10.883781,-3.238845,10.664265
-10.883781,-1.373952,10.268071
-10.883781,0.490941,10.042488
-10.883781,2.355834,9.981332
-10.883781,4.220727,10.055368
-10.883781,6.085620,10.214921
-10.883781,7.950513,10.392509
-10.883781,9.815406,10.505458
-10.883781,11.680299,10.458531
-10.883781,13.545192,10.146546
-10.883781,15.410085,9.457001
-10.883781,17.274978,8.272699
-11.972159,-18.145177,11.160821
-11.972159,-16.303486,12.726174
-11.972159,-14.461794,13.404592
-11.972159,-12.620103,13.458175
-11.972159,-10.778412,13.106798
-11.972159,-8.936721,12.530580
-11.972159,-7.095029,11.872339
-11.972159,-5.253338,11.240064
-11.972159,-3.411647,10.709372
-11.972159,-1.569955,10.325978
-11.972159,0.271736,10.108152
-11.972159,2.113427,10.049188
-11.972159,3.955118,10.119865
-11.972159,5.796810,10.270911
-11.972159,7.638501,10.435468
-11.972159,9.480192,10.531553
-11.972159,11.321884,10.464524
-11.972159,13.163575,10.129544
-11.972159,15.005266,9.414040
-11.972159,16.846957,8.200174
-13.060537,-17.789590,11.550400
-13.060537,-15.993165,12.858419
-13.060537,-14.196741,13.382263
-13.060537,-12.400316,13.357649
-13.060537,-10.603891,12.982125
-13.060537,-8.807466,12.417252
-13.060537,-7.011041,11.790777
-13.060537,-5.214616,11.198807
-13.060537,-3.418191,10.707987
-13.060537,-1.621766,10.357673
-13.060537,0.174659,10.162109
-13.060537,1.971084,10.112603
-13.060537,3.767509,10.179701
-13.060537,5.563934,10.315362
-13.060537,7.360359,10.455133
-13.060537,9.156784,10.520329
-13.060537,10.953209,10.420203
-13.060537,12.749633,10.054123
-13.060537,14.546058,9.313748
-13.060537,16.342483,8.085205
-14.148916,-17.149337,12.012395
-14.148916,-15.419492,12.971381
-14.148916,-13.689647,13.289053
-14.148916,-11.959802,13.164019
-14.148916,-10.229957,12.762375
-14.148916,-8.500112,12.219508
-14.148916,-6.770267,11.641892
-14.148916,-5.040422,11.108895
-14.148916,-3.310577,10.674578
-14.148916,-1.580732,10.369493
-14.148916,0.149113,10.202488
-14.148916,1.878958,10.162508
-14.148916,3.608803,10.220391
-14.148916,5.338648,10.330677
-14.148916,7.068493,10.433403
-14.148916,8.798338,10.455906
-14.148916,10.528183,10.314623
-14.148916,12.258028,9.916896
-14.148916,13.987873,9.162767
-14.148916,15.717718,7.946783
-15.237294,-16.338459,12.340214
-15.237294,-14.693421,12.961897
-15.237294,-13.048383,13.091369
-15.237294,-11.403346,12.886740
-15.237294,-9.758308,12.479891
-15.237294,-8.113270,11.977875
-15.237294,-6.468233,11.464318
-15.237294,-4.823195,11.000819
-15.237294,-3.178157,10.628352
-15.237294,-1.533119,10.368667
-15.237294,0.111918,10.225689
-15.237294,1.756956,10.186920
-15.237294,3.401994,10.224842
-15.237294,5.047031,10.298312
-15.237294,6.692069,10.353968
-15.237294,8.337107,10.327629
-15.237294,9.982144,10.145693
-15.237294,11.627182,9.726540
-15.237294,13.272220,8.981934
-15.237294,14.917257,7.818421
-16.325672,-15.499298,12.427579
-16.325672,-13.953328,12.795948
-16.325672,-12.407358,12.800530
-16.325672,-10.861388,12.561851
-16.325672,-9.315418,12.180260
-16.325672,-7.769448,11.736958
-16.325672,-6.223478,11.295019
-16.325672,-4.677508,10.900422
-16.325672,-3.131538,10.583078
-16.325672,-1.585568,10.357853
-16.325672,-0.039598,10.225598
-16.325672,1.506372,10.174173
-16.325672,3.052342,10.179478
-16.325672,4.598312,10.206476
-16.325672,6.144282,10.210221
-16.325672,7.690252,10.136888
-16.325672,9.236222,9.924792
-16.325672,10.782192,9.505425
-16.325672,12.328162,8.804473
-16.325672,13.874132,7.742851
-17.414050,-14.760978,12.285879
-17.414050,-13.325674,12.505175
-17.414050,-11.890369,12.457122
-17.414050,-10.455065,12.230798
-17.414050,-9.019760,11.900441
-17.414050,-7.584456,11.526154
-17.414050,-6.149152,11.154612
-17.414050,-4.713847,10.819774
-17.414050,-3.278543,10.543589
-17.414050,-1.843238,10.336702
-17.414050,-0.407934,10.199168
-17.414050,1.027371,10.121155
-17.414050,2.462675,10.083655
-17.414050,3.897980,10.059193
-17.414050,5.333284,10.012531
-17.414050,6.768588,9.901382
-17.414050,8.203893,9.677115
-17.414050,9.639197,9.285464
-17.414050,11.074502,8.667234
-17.414050,12.509806,7.759014
-18.502428,-14.184001,11.982830
-18.502428,-12.872518,12.136649
-18.502428,-11.561035,12.091319
-18.502428,-10.249552,11.910556
-18.502428,-8.938068,11.647766
-18.502428,-7.626585,11.346501
-18.502428,-6.315102,11.040907
-18.502428,-5.003619,10.756173
-18.502428,-3.692136,10.508987
-18.502428,-2.380653,10.307985
-18.502428,-1.069170,10.154200
-18.502428,0.242313,10.041516
-18.502428,1.553796,9.957118
-18.502428,2.865279,9.881943
-18.502428,4.176762,9.791134
-18.502428,5.488245,9.654484
-18.502428,6.799728,9.436895
-18.502428,8.111212,9.098826
-18.502428,9.422695,8.596741
-18.502428,10.734178,7.883567
-19.590806,-13.690963,11.589864
-19.590806,-12.525881,11.718656
-19.590806,-11.360800,11.701697
-19.590806,-10.195719,11.581280
-19.590806,-9.030638,11.393273
-19.590806,-7.865557,11.167371
-19.590806,-6.700476,10.927343
-19.590806,-5.535395,10.691284
-19.590806,-4.370314,10.471865
-19.590806,-3.205233,10.276580
-19.590806,-2.040151,10.107996
-19.590806,-0.875070,9.964004
-19.590806,0.290011,9.838070
-19.590806,1.455092,9.719482
-19.590806,2.620173,9.593598
-19.590806,3.785254,9.442101
-19.590806,4.950335,9.243245
-19.590806,6.115416,8.972105
-19.590806,7.280497,8.600826
-19.590806,8.445579,8.098874
-20.679184,-12.983386,11.183251
-20.679184,-12.008956,11.274168
-20.679184,-11.034527,11.273243
-20.679184,-10.060097,11.203299
-20.679184,-9.085668,11.084030
-20.679184,-8.111238,10.932098
-20.679184,-7.136809,10.761239
-20.679184,-6.162379,10.582363
-20.679184,-5.187950,10.403657
-20.679184,-4.213520,10.230688
-20.679184,-3.239091,10.066502
-20.679184,-2.264661,9.911731
-20.679184,-1.290232,9.764690
-20.679184,-0.315802,9.621483
-20.679184,0.658627,9.476105
-20.679184,1.633057,9.320541
-20.679184,2.607486,9.144870
-20.679184,3.581916,8.937369
-20.679184,4.556345,8.684612
-20.679184,5.530775,8.371575
20.494813,0.000000,-6.240103
19.849822,0.000000,-4.706619
19.348816,0.000000,-3.173134
19.035325,0.000000,-1.639650
18.933053,0.000000,-0.106165
19.045882,0.000000,1.427319
19.357867,0.000000,2.960804
19.833240,0.000000,4.494288
20.416410,0.000000,6.027773
21.031958,0.000000,7.561257
21.584645,0.000000,9.094742
22.475310,0.982608,-13.907526
22.521106,0.982608,-12.374042
22.215954,0.982608,-10.840557
21.697571,0.982608,-9.307073
21.083846,0.982608,-7.773588
20.472846,0.982608,-6.240103
19.942812,0.982608,-4.706619
19.552163,0.982608,-3.173134
19.339492,0.982608,-1.639650
19.323567,0.982608,-0.106165
19.503332,0.982608,1.427319
19.857909,0.982608,2.960804
20.346593,0.982608,4.494288
20.908856,0.982608,6.027773
21.464345,0.982608,7.561257
21.912883,0.982608,9.094742
21.890572,1.965215,-13.907526
21.973288,1.965215,-12.374042
21.726220,1.965215,-10.840557
21.282148,1.965215,-9.307073
20.754026,1.965215,-7.773588
20.234985,1.965215,-6.240103
19.798330,1.965215,-4.706619
19.497543,1.965215,-3.173134
19.366281,1.965215,-1.639650
19.418377,1.965215,-0.106165
19.647840,1.965215,1.427319
20.028853,1.965215,2.960804
20.515778,1.965215,4.494288
21.043149,1.965215,6.027773
21.525677,1.965215,7.561257
21.858250,1.965215,9.094742
21.266898,2.947823,-13.907526
21.362915,2.947823,-12.374042
21.151398,2.947823,-10.840557
20.760189,2.947823,-9.307073
20.297306,2.947823,-7.773588
19.850944,2.947823,-6.240103
19.489474,2.947823,-4.706619
19.261439,2.947823,-3.173134
19.195563,2.947823,-1.639650
19.300741,2.947823,-0.106165
19.566046,2.947823,1.427319
19.960726,2.947823,2.960804
20.434205,2.947823,4.494288
20.916084,2.947823,6.027773
21.316136,2.947823,7.561257
21.524314,2.947823,9.094742
20.641986,3.930431,-13.907526
20.731072,3.930431,-12.374042
20.535957,3.930431,-10.840557
20.179547,3.930431,-9.307073
19.764926,3.930431,-7.773588
19.375350,3.930431,-6.240103
19.074255,3.930431,-4.706619
18.905250,3.930431,-3.173134
18.892120,3.930431,-1.639650
19.038825,3.930431,-0.106165
19.329503,3.930431,1.427319
19.728466,3.930431,2.960804
20.180201,3.930431,4.494288
20.609372,3.930431,6.027773
20.920819,3.930431,7.561257
20.103756,4.913038,-12.374042
19.909281,4.913038,-10.840557
19.572993,4.913038,-9.307073
19.193040,4.913038,-7.773588
18.847743,4.913038,-6.240103
18.595600,4.913038,-4.706619
18.475285,4.913038,-3.173134
18.505648,4.913038,-1.639650
18.685713,4.913038,-0.106165
18.994680,4.913038,1.427319
19.391926,4.913038,2.960804
19.817003,4.913038,4.494288
20.189638,4.913038,6.027773
20.409735,4.913038,7.561257
19.463811,5.895646,-13.907526
19.491878,5.895646,-12.374042
19.285665,5.895646,-10.840557
18.958207,5.895646,-9.307073
18.602715,5.895646,-7.773588
18.292573,5.895646,-6.240103
18.081346,5.895646,-4.706619
18.002769,5.895646,-3.173134
18.070757,5.895646,-1.639650
18.279397,5.895646,-0.106165
18.602955,5.895646,1.427319
18.995872,5.895646,2.960804
19.392762,5.895646,4.494288
19.708417,5.895646,6.027773
19.837805,5.895646,7.561257
18.891261,6.878254,-12.374042
18.664320,6.878254,-10.840557
18.337785,6.878254,-9.307073
17.999931,6.878254,-7.773588
17.719209,6.878254,-6.240103
17.544244,6.878254,-4.706619
17.503838,6.878254,-3.173134
17.606968,6.878254,-1.639650
17.842787,6.878254,-0.106165
18.180623,6.878254,1.427319
18.569981,6.878254,2.960804
18.940541,6.878254,4.494288
19.202159,6.878254,6.027773
19.244865,6.878254,7.561257
18.938866,6.878254,9.094742
18.282643,7.860862,-12.374042
18.029366,7.860862,-10.840557
17.699233,7.860862,-9.307073
17.375582,7.860862,-7.773588
17.121927,7.860862,-6.240103
16.981958,7.860862,-4.706619
16.979541,7.860862,-3.173134
17.118716,7.860862,-1.639650
17.383701,7.860862,-0.106165
17.738889,7.860862,1.427319
18.128847,7.860862,2.960804
18.478319,7.860862,4.494288
18.692226,7.860862,6.027773
18.655662,7.860862,7.561257
18.233898,7.860862,9.094742
17.631671,8.843469,-12.374042
17.349839,8.843469,-10.840557
17.014972,8.843469,-9.307073
16.705473,8.843469,-7.773588
16.479919,8.843469,-6.240103
16.377065,8.843469,-4.706619
16.415840,8.843469,-3.173134
16.595350,8.843469,-1.639650
16.894875,8.843469,-0.106165
17.273872,8.843469,1.427319
17.671973,8.843469,2.960804
18.008985,8.843469,4.494288
18.184894,8.843469,6.027773
18.079857,8.843469,7.561257
17.554210,8.843469,9.094742
16.888911,9.826077,-12.374042
16.579688,9.826077,-10.840557
