-13.471461,-12.330536,13.676839
-13.471461,-10.775999,13.463058
-13.471461,-9.221462,13.038015
-13.471461,-7.666925,12.513548
-13.471461,-6.112387,11.977023
-13.471461,-4.557850,11.492795
-13.471461,-3.003313,11.103671
-13.471461,-1.448776,10.832372
-13.471461,0.105761,10.683000
-13.471461,1.660298,10.642498
-13.471461,3.214835,10.682115
-13.471461,4.769373,10.758871
-13.471461,6.323910,10.817016
-13.471461,7.878447,10.789499
-13.471461,9.432984,10.599426
-13.471461,10.987521,10.161528
-13.471461,12.542058,9.383622
-13.471461,14.096595,8.168075
-14.433708,-14.646616,12.983363
-14.433708,-13.185696,13.368206
-14.433708,-11.724776,13.372993
-14.433708,-10.263857,13.123639
-14.433708,-8.802937,12.724984
-14.433708,-7.342018,12.261856
-14.433708,-5.881098,11.800152
-14.433708,-4.420178,11.387909
-14.433708,-2.959259,11.056373
-14.433708,-1.498339,10.821075
-14.433708,-0.037420,10.682905
-14.433708,1.423500,10.629180
-14.433708,2.884420,10.634722
-14.433708,4.345339,10.662928
-14.433708,5.806259,10.666841
-14.433708,7.267179,10.590228
-14.433708,8.728098,10.368647
-14.433708,10.189018,9.930524
-14.433708,11.649937,9.198225
-14.433708,13.110857,8.089125
-15.395955,-13.948914,12.835325
-15.395955,-12.592572,13.064429
-15.395955,-11.236229,13.014226
-15.395955,-9.879887,12.777781
-15.395955,-8.523545,12.432650
-15.395955,-7.167203,12.041624
-15.395955,-5.810860,11.653466
-15.395955,-4.454518,11.303654
-15.395955,-3.098176,11.015117
-15.395955,-1.741834,10.798978
-15.395955,-0.385492,10.655293
-15.395955,0.970851,10.573791
-15.395955,2.327193,10.534615
-15.395955,3.683535,10.509058
-15.395955,5.039877,10.460310
-15.395955,6.396220,10.344190
-15.395955,7.752562,10.109893
-15.395955,9.108904,9.700726
-15.395955,10.465246,9.054848
-15.395955,11.821588,8.106011
-16.358203,-13.403678,12.518724
-16.358203,-12.164346,12.679422
-16.358203,-10.925013,12.632065
-16.358203,-9.685680,12.443217
-16.358203,-8.446347,12.168675
-16.358203,-7.207014,11.853937
-16.358203,-5.967682,11.534676
-16.358203,-4.728349,11.237208
-16.358203,-3.489016,10.978968
-16.358203,-2.249683,10.768977
-16.358203,-1.010350,10.608314
-16.358203,0.228982,10.490590
-16.358203,1.468315,10.402418
-16.358203,2.707648,10.323882
-16.358203,3.946981,10.229011
-16.358203,5.186314,10.086250
-16.358203,6.425646,9.858930
-16.358203,7.664979,9.505742
-16.358203,8.904312,8.981203
-16.358203,10.143645,8.236134
-17.320450,-12.937764,12.108184
-17.320450,-11.836779,12.242736
-17.320450,-10.735794,12.225018
-17.320450,-9.634809,12.099216
-17.320450,-8.533824,11.902801
-17.320450,-7.432839,11.666796
-17.320450,-6.331854,11.416033
-17.320450,-5.230869,11.169418
-17.320450,-4.129884,10.940186
-17.320450,-3.028899,10.736167
-17.320450,-1.927914,10.560043
-17.320450,-0.826929,10.409612
-17.320450,0.274056,10.278047
-17.320450,1.375041,10.154154
-17.320450,2.476026,10.022641
-17.320450,3.577011,9.864369
-17.320450,4.677996,9.656620
-17.320450,5.778981,9.373354
-17.320450,6.879966,8.985470
-17.320450,7.980951,8.461070
-18.282697,-12.269114,11.683386
-18.282697,-11.348292,11.778369
-18.282697,-10.427470,11.777402
-18.282697,-9.506649,11.704331
-18.282697,-8.585827,11.579728
-18.282697,-7.665005,11.421002
-18.282697,-6.744183,11.242501
-18.282697,-5.823361,11.055626
-18.282697,-4.902539,10.868928
-18.282697,-3.981717,10.688223
-18.282697,-3.060895,10.516694
-18.282697,-2.140073,10.355001
-18.282697,-1.219251,10.201384
-18.282697,-0.298429,10.051774
-18.282697,0.622393,9.899894
-18.282697,1.543215,9.737373
-18.282697,2.464037,9.553846
-18.282697,3.384859,9.337065
-18.282697,4.305681,9.073004
-18.282697,5.226503,8.745967
18.119692,0.000000,-6.519172
17.549448,0.000000,-4.917107
17.106503,0.000000,-3.315043
16.829342,0.000000,-1.712978
16.738923,0.000000,-0.110913
16.838676,0.000000,1.491152
17.114505,0.000000,3.093216
17.534788,0.000000,4.695281
18.050375,0.000000,6.297346
18.594588,0.000000,7.899411
19.083225,0.000000,9.501475
19.870672,0.928550,-14.529496
19.911160,0.928550,-12.927431
19.641372,0.928550,-11.325366
19.183064,0.928550,-9.723302
18.640463,0.928550,-8.121237
18.100271,0.928550,-6.519172
17.631662,0.928550,-4.917107
17.286285,0.928550,-3.315043
17.098260,0.928550,-1.712978
17.084180,0.928550,-0.110913
17.243113,0.928550,1.491152
17.556599,0.928550,3.093216
17.988650,0.928550,4.695281
18.485753,0.928550,6.297346
18.976867,0.928550,7.899411
19.373424,0.928550,9.501475
19.353699,1.857101,-14.529496
19.426828,1.857101,-12.927431
19.208393,1.857101,-11.325366
18.815784,1.857101,-9.723302
18.348866,1.857101,-8.121237
17.889976,1.857101,-6.519172
17.503924,1.857101,-4.917107
17.237995,1.857101,-3.315043
17.121945,1.857101,-1.712978
17.168003,1.857101,-0.110913
17.370874,1.857101,1.491152
17.707732,1.857101,3.093216
18.138227,1.857101,4.695281
18.604482,1.857101,6.297346
19.031091,1.857101,7.899411
19.325122,1.857101,9.501475
18.802301,2.785651,-14.529496
18.887191,2.785651,-12.927431
18.700186,2.785651,-11.325366
18.354314,2.785651,-9.723302
17.945074,2.785651,-8.121237
17.550441,2.785651,-6.519172
17.230861,2.785651,-4.917107
17.029253,2.785651,-3.315043
16.971011,2.785651,-1.712978
17.064000,2.785651,-0.110913
17.298559,2.785651,1.491152
17.647500,2.785651,3.093216
18.066108,2.785651,4.695281
18.492142,2.785651,6.297346
18.845833,2.785651,7.899411
19.029885,2.785651,9.501475
18.249809,3.714201,-14.529496
18.328571,3.714201,-12.927431
18.156068,3.714201,-11.325366
17.840962,3.714201,-9.723302
17.474391,3.714201,-8.121237
17.129963,3.714201,-6.519172
16.863761,3.714201,-4.917107
16.714342,3.714201,-3.315043
16.702733,3.714201,-1.712978
16.832437,3.714201,-0.110913
17.089429,3.714201,1.491152
17.442156,3.714201,3.093216
17.841540,3.714201,4.695281
18.220975,3.714201,6.297346
18.496329,3.714201,7.899411
17.773954,4.642751,-12.927431
17.602017,4.642751,-11.325366
17.304701,4.642751,-9.723302
16.968780,4.642751,-8.121237
16.663499,4.642751,-6.519172
16.440577,4.642751,-4.917107
16.334205,4.642751,-3.315043
16.361049,4.642751,-1.712978
16.520246,4.642751,-0.110913
16.793408,4.642751,1.491152
17.144617,4.642751,3.093216
17.520433,4.642751,4.695281
17.849884,4.642751,6.297346
18.044474,4.642751,7.899411
17.208172,5.571302,-14.529496
17.232986,5.571302,-12.927431
17.050671,5.571302,-11.325366
16.761162,5.571302,-9.723302
16.446867,5.571302,-8.121237
16.172668,5.571302,-6.519172
15.985919,5.571302,-4.917107
15.916449,5.571302,-3.315043
15.976557,5.571302,-1.712978
16.161019,5.571302,-0.110913
16.447080,5.571302,1.491152
16.794461,5.571302,3.093216
17.145356,5.571302,4.695281
17.424431,5.571302,6.297346
17.538824,5.571302,7.899411
16.701974,6.499852,-12.927431
16.501333,6.499852,-11.325366
16.212639,6.499852,-9.723302
15.913939,6.499852,-8.121237
15.665750,6.499852,-6.519172
15.511061,6.499852,-4.917107
15.475338,6.499852,-3.315043
15.566516,6.499852,-1.712978
15.775006,6.499852,-0.110913
16.073691,6.499852,1.491152
16.417927,6.499852,3.093216
16.745543,6.499852,4.695281
16.976842,6.499852,6.297346
17.014599,6.499852,7.899411
16.744062,6.499852,9.501475
16.163888,7.428402,-12.927431
15.939963,7.428402,-11.325366
15.648089,7.428402,-9.723302
15.361945,7.428402,-8.121237
15.137686,7.428402,-6.519172
15.013938,7.428402,-4.917107
15.011801,7.428402,-3.315043
15.134847,7.428402,-1.712978
15.369124,7.428402,-0.110913
15.683149,7.428402,1.491152
16.027915,7.428402,3.093216
16.336888,7.428402,4.695281
16.526005,7.428402,6.297346
16.493678,7.428402,7.899411
16.120792,7.428402,9.501475
15.588357,8.356952,-12.927431
15.339186,8.356952,-11.325366
15.043126,8.356952,-9.723302
14.769494,8.356952,-8.121237
14.570080,8.356952,-6.519172
14.479145,8.356952,-4.917107
14.513427,8.356952,-3.315043
14.672133,8.356952,-1.712978
14.936947,8.356952,-0.110913
15.272022,8.356952,1.491152
15.623988,8.356952,3.093216
15.921944,8.356952,4.695281
16.077467,8.356952,6.297346
15.984603,8.356952,7.899411
15.519873,8.356952,9.501475
14.931674,9.285503,-12.927431
14.658286,9.285503,-11.325366
14.360030,9.285503,-9.723302
14.101858,9.285503,-8.121237
13.931196,9.285503,-6.519172
13.877941,9.285503,-4.917107
13.954467,9.285503,-3.315043
14.155618,9.285503,-1.712978
14.458712,9.285503,-0.110913
14.823541,9.285503,1.491152
15.192367,9.285503,3.093216
15.489930,9.285503,4.695281
15.623438,9.285503,6.297346
15.482576,9.285503,7.899411
14.939501,9.285503,9.501475
14.136791,10.214053,-12.927431
13.843211,10.214053,-11.325366
13.547741,10.214053,-9.723302
13.310970,10.214053,-8.121237
13.175959,10.214053,-6.519172
13.168245,10.214053,-4.917107
13.295834,10.214053,-3.315043
13.549207,10.214053,-1.712978
13.901319,10.214053,-0.110913
14.307596,10.214053,1.491152
14.705939,10.214053,3.093216
15.016721,10.214053,4.695281
15.142789,10.214053,6.297346
14.969462,10.214053,7.899411
14.364533,10.214053,9.501475
13.133324,11.142603,-12.927431
12.826567,11.142603,-11.325366
12.541858,11.142603,-9.723302
12.335422,11.142603,-8.121237
12.245958,11.142603,-6.519172
12.294636,11.142603,-4.917107
12.485100,11.142603,-3.315043
12.803466,11.142603,-1.712978
13.218326,11.142603,-0.110913
13.680741,11.142603,1.491152
14.124249,11.142603,3.093216
14.464859,11.142603,4.695281
14.601053,11.142603,6.297346
14.413786,11.142603,7.899411
13.766488,11.142603,9.501475
11.837549,12.071153,-12.927431
11.527623,12.071153,-11.325366
11.264644,12.071153,-9.723302
11.100472,12.071153,-8.121237
11.069440,12.071153,-6.519172
11.188356,12.071153,-4.917107
11.456500,12.071153,-3.315043
11.855624,12.071153,-1.712978
12.349955,12.071153,-0.110913
12.886191,12.071153,1.491152
13.393505,12.071153,3.093216
13.783543,12.071153,4.695281
13.950423,12.071153,6.297346
13.770736,12.071153,7.899411
10.152402,12.999704,-12.927431
9.852311,12.999704,-11.325366
9.625023,12.999704,-9.723302
9.518035,12.999704,-8.121237
9.561316,12.999704,-6.519172
9.767310,12.999704,-4.917107
10.130931,12.999704,-3.315043
10.629570,12.999704,-1.712978
11.223088,12.999704,-0.110913
11.853821,12.999704,1.491152
12.446576,12.999704,3.093216
12.908636,12.999704,4.695281
13.129754,12.999704,6.297346
12.982158,12.999704,7.899411
12.320550,12.999704,9.501475
7.967483,13.928254,-12.927431
7.693223,13.928254,-11.325366
7.518581,13.928254,-9.723302
7.486691,13.928254,-8.121237
7.623158,13.928254,-6.519172
7.936060,13.928254,-4.917107
8.415951,13.928254,-3.315043
9.035855,13.928254,-1.712978
9.751270,13.928254,-0.110913
10.500168,13.928254,1.491152
11.202992,13.928254,3.093216
11.762660,13.928254,4.695281
12.064563,13.928254,6.297346
11.976565,13.928254,7.899411
11.349001,13.928254,9.501475
5.159052,14.856804,-12.927431
4.929611,14.856804,-11.325366
4.827563,14.856804,-9.723302
4.891678,14.856804,-8.121237
5.143197,14.856804,-6.519172
5.585834,14.856804,-4.917107
6.205779,14.856804,-3.315043
6.971692,14.856804,-1.712978
7.834706,14.856804,-0.110913
8.728430,14.856804,1.491152
9.568944,14.856804,3.093216
10.254802,14.856804,4.695281
10.667029,14.856804,6.297346
10.669125,14.856804,7.899411
10.107064,14.856804,9.501475
1.590031,15.785354,-12.927431
1.427391,15.785354,-11.325366
1.420878,15.785354,-9.723302
1.604898,15.785354,-8.121237
1.996328,15.785354,-6.519172
2.594519,15.785354,-4.917107
3.381295,15.785354,-3.315043
4.320953,15.785354,-1.712978
5.360263,15.785354,-0.110913
6.428469,15.785354,1.491152
7.437287,15.785354,3.093216
8.280906,15.785354,4.695281
8.835990,15.785354,6.297346
8.961673,15.785354,7.899411
8.499564,15.785354,9.501475
0.954175,16.713905,-1.712978
2.201469,16.713905,-0.110913
3.476805,16.713905,1.491152
4.687534,16.713905,3.093216
5.723482,16.713905,4.695281
6.456947,16.713905,6.297346
6.742702,16.713905,7.899411
6.417990,16.713905,9.501475
1.185862,17.642455,3.093216
2.451698,17.642455,4.695281
3.402064,17.642455,6.297346
3.887367,17.642455,7.899411
8.875426,-14.816122,-12.927431
12.014797,-14.816122,-11.325366
13.780156,-14.816122,-9.723302
14.649847,-14.816122,-8.121237
14.983807,-14.816122,-6.519172
15.039136,-14.816122,-4.917107
14.985677,-14.816122,-3.315043
14.921585,-14.816122,-1.712978
14.888902,-14.816122,-0.110913
14.889131,-14.816122,1.491152
14.898808,-14.816122,3.093216
14.885079,-14.816122,4.695281
14.821268,-14.816122,6.297346
14.702459,-14.816122,7.899411
14.561060,-14.816122,9.501475
14.482383,-14.816122,11.103540
14.620218,-14.816122,12.705605
11.173020,-13.993004,-12.927431
13.961271,-13.993004,-11.325366
15.456751,-13.993004,-9.723302
16.123397,-13.993004,-8.121237
16.308262,-13.993004,-6.519172
16.257088,-13.993004,-4.917107
16.129882,-13.993004,-3.315043
16.016487,-13.993004,-1.712978
15.952158,-13.993004,-0.110913
15.933134,-13.993004,1.491152
15.932211,-13.993004,3.093216
15.914320,-13.993004,4.695281
15.852093,-13.993004,6.297346
15.741445,-13.993004,7.899411
15.617142,-13.993004,9.501475
15.568375,-13.993004,11.103540
15.754337,-13.993004,12.705605
13.103031,-13.169886,-12.927431
15.567562,-13.169886,-11.325366
16.816528,-13.169886,-9.723302
17.299842,-13.169886,-8.121237
17.352056,-13.169886,-6.519172
17.207934,-13.169886,-4.917107
17.018030,-13.169886,-3.315043
16.864259,-13.169886,-1.712978
16.775471,-13.169886,-0.110913
16.743023,-13.169886,1.491152
16.736356,-13.169886,3.093216
16.718564,-13.169886,4.695281
16.661974,-13.169886,6.297346
16.563713,-13.169886,7.899411
16.461286,-13.169886,9.501475
16.448148,-13.169886,11.103540
14.706151,-12.346768,-12.927431
16.873550,-12.346768,-11.325366
17.898637,-12.346768,-9.723302
18.217684,-12.346768,-8.121237
18.153123,-12.346768,-6.519172
17.929125,-12.346768,-4.917107
17.687175,-12.346768,-3.315043
17.501640,-12.346768,-1.712978
17.395347,-12.346768,-0.110913
17.355156,-12.346768,1.491152
17.347532,-12.346768,3.093216
17.334121,-12.346768,4.695281
17.287320,-12.346768,6.297346
17.205855,-12.346768,7.899411
17.130352,-12.346768,9.501475
17.158911,-12.346768,11.103540
16.021654,-11.523650,-12.927431
17.917585,-11.523650,-11.325366
18.740589,-11.523650,-9.723302
18.913677,-11.523650,-8.121237
18.747548,-11.523650,-6.519172
18.456159,-11.523650,-4.917107
18.172308,-11.523650,-3.315043
17.963197,-11.523650,-1.712978
17.846016,-11.523650,-0.110913
17.803506,-11.523650,1.491152
17.799542,-11.523650,3.093216
17.794700,-11.523650,4.695281
17.761835,-11.523650,6.297346
17.701653,-11.523650,7.899411
17.658283,-11.523650,9.501475
17.734853,-11.523650,11.103540
17.087078,-10.700532,-12.927431
18.736178,-10.700532,-11.325366
19.377950,-10.700532,-9.723302
19.422528,-10.700532,-8.121237
19.169256,-10.700532,-6.519172
18.822265,-10.700532,-4.917107
18.506046,-10.700532,-3.315043
18.281021,-10.700532,-1.712978
18.159120,-10.700532,-0.110913
18.119354,-10.700532,1.491152
18.123386,-10.700532,3.093216
18.131109,-10.700532,4.695281
18.116215,-10.700532,6.297346
18.081772,-10.700532,7.899411
18.075796,-10.700532,9.501475
18.206826,-10.700532,11.103540
17.937924,-9.877415,-12.927431
19.363695,-9.877415,-11.325366
19.844034,-9.877415,-9.723302
19.776581,-9.877415,-8.121237
19.449709,-9.877415,-6.519172
19.058103,-9.877415,-4.917107
18.718330,-9.877415,-3.315043
18.484414,-9.877415,-1.712978
18.363412,-9.877415,-0.110913
18.330982,-9.877415,1.491152
18.346963,-9.877415,3.093216
18.370941,-9.877415,4.695281
18.377833,-9.877415,6.297346
18.373449,-9.877415,7.899411
18.410077,-9.877415,9.501475
18.602046,-9.877415,11.103540
18.607345,-9.054297,-12.927431
19.832047,-9.054297,-11.325366
20.169594,-9.054297,-9.723302
20.005514,-9.054297,-8.121237
19.617591,-9.054297,-6.519172
19.191448,-9.054297,-4.917107
18.836110,-9.054297,-3.315043
18.599587,-9.054297,-1.712978
18.484442,-9.054297,-0.110913
18.463366,-9.054297,1.491152
18.494752,-9.054297,3.093216
18.538269,-9.054297,4.695281
18.570435,-9.054297,6.297346
18.600189,-9.054297,7.899411
18.684468,-9.054297,9.501475
18.943780,-9.054297,11.103540
16.753292,-8.231179,-14.529496
19.125838,-8.231179,-12.927431
20.170384,-8.231179,-11.325366
20.382515,-8.231179,-9.723302
20.136029,-8.231179,-8.121237
19.698508,-8.231179,-6.519172
19.246889,-8.231179,-4.917107
18.883044,-8.231179,-3.315043
18.649347,-8.231179,-1.712978
18.544252,-8.231179,-0.110913
18.537864,-8.231179,1.491152
18.587515,-8.231179,3.093216
18.653336,-8.231179,4.695281
18.713831,-8.231179,6.297346
18.781450,-8.231179,7.899411
18.918165,-8.231179,9.501475
19.251039,-8.231179,11.103540
17.373250,-7.408061,-14.529496
19.520938,-7.408061,-12.927431
20.404784,-7.408061,-11.325366
20.507503,-7.408061,-9.723302
20.191546,-7.408061,-8.121237
19.714671,-7.408061,-6.519172
19.245519,-7.408061,-4.917107
18.879184,-7.408061,-3.315043
18.652790,-7.408061,-1.712978
18.561065,-7.408061,-0.110913
18.571912,-7.408061,1.491152
18.641981,-7.408061,3.093216
18.732250,-7.408061,4.695281
18.823590,-7.408061,6.297346
18.932346,-7.408061,7.899411
19.125904,-7.408061,9.501475
19.538271,-7.408061,11.103540
17.872429,-6.584943,-14.529496
19.816908,-6.584943,-12.927431
20.557950,-6.584943,-11.325366
20.565782,-6.584943,-9.723302
20.191892,-6.584943,-8.121237
19.684598,-6.584943,-6.519172
19.204623,-6.584943,-4.917107
18.840670,-6.584943,-3.315043
18.624996,-6.584943,-1.712978
18.548983,-6.584943,-0.110913
18.578712,-6.584943,1.491152
18.670540,-6.584943,3.093216
18.786670,-6.584943,4.695281
18.910726,-6.584943,6.297346
19.063327,-6.584943,7.899411
19.317659,-6.584943,9.501475
19.815052,-6.584943,11.103540
18.273265,-5.761825,-14.529496
20.034430,-5.761825,-12.927431
20.648895,-5.761825,-11.325366
20.574782,-5.761825,-9.723302
20.152995,-5.761825,-8.121237
19.622796,-5.761825,-6.519172
19.137376,-5.761825,-4.917107
18.779426,-5.761825,-3.315043
18.576718,-5.761825,-1.712978
18.517671,-5.761825,-0.110913
18.566930,-5.761825,1.491152
18.680938,-5.761825,3.093216
18.823507,-5.761825,4.695281
18.981395,-5.761825,6.297346
19.179880,-5.761825,7.899411
19.498329,-5.761825,9.501475
20.085778,-5.761825,11.103540
20.190302,-4.938707,-12.927431
20.692641,-4.938707,-11.325366
20.547831,-4.938707,-9.723302
20.086576,-4.938707,-8.121237
19.539463,-4.938707,-6.519172
19.052530,-4.938707,-4.917107
18.702844,-4.938707,-3.315043
18.514072,-4.938707,-1.712978
18.472056,-4.938707,-0.110913
18.540383,-4.938707,1.491152
18.675965,-4.938707,3.093216
18.844608,-4.938707,4.695281
19.036586,-4.938707,6.297346
19.282217,-4.938707,7.899411
19.667433,-4.938707,9.501475
20.349359,-4.938707,11.103540
18.850437,-4.115589,-14.529496
20.297123,-4.115589,-12.927431
20.699908,-4.115589,-11.325366
20.493850,-4.115589,-9.723302
19.999840,-4.115589,-8.121237
19.440170,-4.115589,-6.519172
18.954111,-4.115589,-4.917107
18.613484,-4.115589,-3.315043
18.438237,-4.115589,-1.712978
18.412014,-4.115589,-0.110913
18.497730,-4.115589,1.491152
18.653149,-4.115589,3.093216
18.846451,-4.115589,4.695281
19.071810,-4.115589,6.297346
19.364966,-4.115589,7.899411
19.818800,-4.115589,9.501475
20.598905,-4.115589,11.103540
19.051507,-3.292472,-14.529496
20.362992,-3.292472,-12.927431
20.676804,-3.292472,-11.325366
20.417044,-3.292472,-9.723302
19.895168,-3.292472,-8.121237
19.325560,-3.292472,-6.519172
18.841105,-3.292472,-4.917107
18.508761,-3.292472,-3.315043
18.345138,-3.292472,-1.712978
18.332066,-3.292472,-0.110913
18.432171,-3.292472,1.491152
18.604449,-3.292472,3.093216
18.819839,-3.292472,4.695281
19.076797,-3.292472,6.297346
19.416868,-3.292472,7.899411
19.940262,-3.292472,9.501475
19.203088,-2.469354,-14.529496
20.391194,-2.469354,-12.927431
20.624520,-2.469354,-11.325366
20.316591,-2.469354,-9.723302
19.769812,-2.469354,-8.121237
19.191040,-2.469354,-6.519172
18.707155,-2.469354,-4.917107
18.380638,-2.469354,-3.315043
18.225143,-2.469354,-1.712978
18.221067,-2.469354,-0.110913
18.331130,-2.469354,1.491152
18.515944,-2.469354,3.093216
18.749589,-2.469354,4.695281
19.035183,-2.469354,6.297346
19.420462,-2.469354,7.899411
20.013348,-2.469354,9.501475
19.305630,-1.646236,-14.529496
20.379896,-1.646236,-12.927431
20.539021,-1.646236,-11.325366
20.186338,-1.646236,-9.723302
19.615582,-1.646236,-8.121237
19.026467,-1.646236,-6.519172
18.540252,-1.646236,-4.917107
18.215320,-1.646236,-3.315043
18.062753,-1.646236,-1.712978
18.061900,-1.646236,-0.110913
18.175955,-1.646236,1.491152
18.367529,-1.646236,3.093216
18.614224,-1.646236,4.695281
18.924207,-1.646236,6.297346
19.351784,-1.646236,7.899411
20.012971,-1.646236,9.501475
19.354266,-0.823118,-14.529496
20.321838,-0.823118,-12.927431
20.410738,-0.823118,-11.325366
20.014489,-0.823118,-9.723302
19.418542,-0.823118,-8.121237
18.815846,-0.823118,-6.519172
18.322424,-0.823118,-4.917107
17.992944,-0.823118,-3.315043
17.836297,-0.823118,-1.712978
17.831166,-0.823118,-0.110913
17.941603,-0.823118,1.491152
18.132601,-0.823118,3.093216
18.385668,-0.823118,4.695281
18.714399,-0.823118,6.297346
19.180053,-0.823118,7.899411
19.907124,-0.823118,9.501475
19.338497,0.000000,-14.529496
20.204023,0.000000,-12.927431
20.224259,0.000000,-11.325366
19.783303,0.000000,-9.723302
19.158700,0.000000,-8.121237
18.537020,0.000000,-6.519172
18.029431,0.000000,-4.917107
17.687270,0.000000,-3.315043
17.517619,0.000000,-1.712978
17.498878,0.000000,-0.110913
17.596339,0.000000,1.491152
17.777759,0.000000,3.093216
18.028934,0.000000,4.695281
18.369272,0.000000,6.297346
18.867367,0.000000,7.899411
19.656574,0.000000,9.501475
12.975981,-16.608465,-12.927431
12.975981,-16.642059,-11.325366
12.975981,-16.670142,-9.723302
12.975981,-16.692713,-8.121237
12.975981,-16.709774,-6.519172
12.975981,-16.721323,-4.917107
12.975981,-16.727361,-3.315043
12.975981,-16.727888,-1.712978
12.975981,-16.722903,-0.110913
12.975981,-16.712408,1.491152
12.975981,-16.696401,3.093216
12.975981,-16.674883,4.695281
12.975981,-16.647853,6.297346
12.975981,-16.615313,7.899411
12.975981,-16.577261,9.501475
12.256486,-16.763951,-12.927431
12.256486,-16.785049,-11.325366
12.256486,-16.800636,-9.723302
12.256486,-16.810712,-8.121237
12.256486,-16.815277,-6.519172
12.256486,-16.814331,-4.917107
12.256486,-16.807873,-3.315043
12.256486,-16.795904,-1.712978
12.256486,-16.778424,-0.110913
12.256486,-16.755432,1.491152
12.256486,-16.726929,3.093216
12.256486,-16.692916,4.695281
12.256486,-16.653390,6.297346
12.256486,-16.608354,7.899411
12.256486,-16.557807,9.501475
12.256486,-16.501748,11.103540
11.536992,-16.900273,-12.927431
11.536992,-16.908876,-11.325366
11.536992,-16.911967,-9.723302
11.536992,-16.909547,-8.121237
11.536992,-16.901616,-6.519172
11.536992,-16.888174,-4.917107
11.536992,-16.869220,-3.315043
11.536992,-16.844756,-1.712978
11.536992,-16.814780,-0.110913
11.536992,-16.779293,1.491152
11.536992,-16.738294,3.093216
11.536992,-16.691784,4.695281
11.536992,-16.639764,6.297346
11.536992,-16.582232,7.899411
11.536992,-16.519188,9.501475
11.536992,-16.450634,11.103540
10.817497,-17.017431,-12.927431
10.817497,-17.013538,-11.325366
10.817497,-17.004134,-9.723302
10.817497,-16.989218,-8.121237
10.817497,-16.968791,-6.519172
10.817497,-16.942853,-4.917107
10.817497,-16.911404,-3.315043
10.817497,-16.874443,-1.712978
10.817497,-16.831972,-0.110913
10.817497,-16.783989,1.491152
10.817497,-16.730495,3.093216
10.817497,-16.671489,4.695281
10.817497,-16.606973,6.297346
10.817497,-16.536945,7.899411
10.817497,-16.461406,9.501475
10.098002,-17.115425,-12.927431
10.098002,-17.099036,-11.325366
10.098002,-17.077136,-9.723302
10.098002,-17.049725,-8.121237
10.098002,-17.016802,-6.519172
10.098002,-16.978368,-4.917107
10.098002,-16.934423,-3.315043
10.098002,-16.884967,-1.712978
10.098002,-16.830000,-0.110913
10.098002,-16.769521,1.491152
10.098002,-16.703531,3.093216
10.098002,-16.632030,4.695281
10.098002,-16.555018,6.297346
10.098002,-16.472494,7.899411
10.098002,-16.384459,9.501475
9.378507,-17.194255,-12.927431
9.378507,-17.165370,-11.325366
9.378507,-17.130974,-9.723302
9.378507,-17.091067,-8.121237
9.378507,-17.045649,-6.519172
9.378507,-16.994719,-4.917107
9.378507,-16.938279,-3.315043
9.378507,-16.876327,-1.712978
9.378507,-16.808863,-0.110913
9.378507,-16.735889,1.491152
9.378507,-16.657403,3.093216
9.378507,-16.573406,4.695281
9.378507,-16.483898,6.297346
9.378507,-16.388879,7.899411
9.378507,-16.288348,9.501475
8.659013,-17.253920,-12.927431
8.659013,-17.212540,-11.325366
8.659013,-17.165648,-9.723302
8.659013,-17.113246,-8.121237
8.659013,-17.055331,-6.519172
8.659013,-16.991906,-4.917107
8.659013,-16.922970,-3.315043
8.659013,-16.848522,-1.712978
8.659013,-16.768563,-0.110913
8.659013,-16.683093,1.491152
8.659013,-16.592111,3.093216
8.659013,-16.495619,4.695281
8.659013,-16.393615,6.297346
8.659013,-16.286100,7.899411
8.659013,-16.173074,9.501475
7.939518,-17.294422,-12.927431
7.939518,-17.240546,-11.325366
7.939518,-17.181158,-9.723302
7.939518,-17.116260,-8.121237
7.939518,-17.045850,-6.519172
7.939518,-16.969929,-4.917107
7.939518,-16.888497,-3.315043
7.939518,-16.801553,-1.712978
7.939518,-16.709099,-0.110913
7.939518,-16.611133,1.491152
7.939518,-16.507656,3.093216
7.939518,-16.398667,4.695281
7.939518,-16.284168,6.297346
7.939518,-16.164157,7.899411
7.939518,-16.038635,9.501475
7.939518,-15.907601,11.103540
7.220023,-17.315759,-12.927431
7.220023,-17.249387,-11.325366
7.220023,-17.177504,-9.723302
7.220023,-17.100110,-8.121237
7.220023,-17.017204,-6.519172
7.220023,-16.928788,-4.917107
7.220023,-16.834860,-3.315043
7.220023,-16.735420,-1.712978
7.220023,-16.630470,-0.110913
7.220023,-16.520008,1.491152
7.220023,-16.404035,3.093216
7.220023,-16.282551,4.695281
7.220023,-16.155556,6.297346
7.220023,-16.023049,7.899411
7.220023,-15.885032,9.501475
7.220023,-15.741503,11.103540
6.500528,-17.317932,-12.927431
6.500528,-17.239065,-11.325366
6.500528,-17.154686,-9.723302
6.500528,-17.064796,-8.121237
6.500528,-16.969395,-6.519172
6.500528,-16.868482,-4.917107
6.500528,-16.762058,-3.315043
6.500528,-16.650123,-1.712978
6.500528,-16.532677,-0.110913
6.500528,-16.409720,1.491152
6.500528,-16.281251,3.093216
6.500528,-16.147271,4.695281
6.500528,-16.007780,6.297346
6.500528,-15.862778,7.899411
6.500528,-15.712264,9.501475
6.500528,-15.556240,11.103540
5.781033,-17.300942,-12.927431
5.781033,-17.209578,-11.325366
5.781033,-17.112704,-9.723302
5.781033,-17.010318,-8.121237
5.781033,-16.902421,-6.519172
5.781033,-16.789013,-4.917107
5.781033,-16.670093,-3.315043
5.781033,-16.545662,-1.712978
5.781033,-16.415720,-0.110913
5.781033,-16.280267,1.491152
5.781033,-16.139303,3.093216
5.781033,-15.992827,4.695281
5.781033,-15.840840,6.297346
5.781033,-15.683342,7.899411
5.781033,-15.520333,9.501475
5.781033,-15.351813,11.103540
5.061539,-17.264787,-12.927431
5.061539,-17.160928,-11.325366
5.061539,-17.051557,-9.723302
5.061539,-16.936676,-8.121237
5.061539,-16.816283,-6.519172
5.061539,-16.690379,-4.917107
5.061539,-16.558964,-3.315043
5.061539,-16.422037,-1.712978
5.061539,-16.279600,-0.110913
5.061539,-16.131651,1.491152
5.061539,-15.978190,3.093216
5.061539,-15.819219,4.695281
5.061539,-15.654737,6.297346
5.061539,-15.484743,7.899411
5.061539,-15.309238,9.501475
5.061539,-15.128221,11.103540
4.342044,-17.209468,-12.927431
4.342044,-17.093113,-11.325366
4.342044,-16.971247,-9.723302
4.342044,-16.843869,-8.121237
4.342044,-16.710981,-6.519172
4.342044,-16.572581,-4.917107
4.342044,-16.428670,-3.315043
4.342044,-16.279248,-1.712978
4.342044,-16.124314,-0.110913
4.342044,-15.963870,1.491152
4.342044,-15.797914,3.093216
4.342044,-15.626447,4.695281
4.342044,-15.449468,6.297346
4.342044,-15.266979,7.899411
4.342044,-15.078978,9.501475
4.342044,-14.885466,11.103540
3.622549,-17.134984,-12.927431
3.622549,-17.006134,-11.325366
3.622549,-16.871772,-9.723302
3.622549,-16.731899,-8.121237
3.622549,-16.586515,-6.519172
3.622549,-16.435619,-4.917107
3.622549,-16.279212,-3.315043
3.622549,-16.117294,-1.712978
3.622549,-15.949865,-0.110913
3.622549,-15.776925,1.491152
3.622549,-15.598473,3.093216
3.622549,-15.414510,4.695281
3.622549,-15.225036,6.297346
3.622549,-15.030051,7.899411
3.622549,-14.829554,9.501475
3.622549,-14.623547,11.103540
2.903054,-17.041337,-12.927431
2.903054,-16.899991,-11.325366
2.903054,-16.753133,-9.723302
2.903054,-16.600764,-8.121237
2.903054,-16.442884,-6.519172
2.903054,-16.279493,-4.917107
2.903054,-16.110591,-3.315043
2.903054,-15.936177,-1.712978
2.903054,-15.756252,-0.110913
2.903054,-15.570816,1.491152
2.903054,-15.379868,3.093216
2.903054,-15.183410,4.695281
2.903054,-14.981440,6.297346
2.903054,-14.773959,7.899411
2.903054,-14.560967,9.501475
2.903054,-14.342463,11.103540
2.183560,-16.928525,-12.927431
2.183560,-16.774683,-11.325366
2.183560,-16.615330,-9.723302
2.183560,-16.450466,-8.121237
2.183560,-16.280090,-6.519172
2.183560,-16.104203,-4.917107
2.183560,-15.922805,-3.315043
2.183560,-15.735895,-1.712978
2.183560,-15.543475,-0.110913
2.183560,-15.345543,1.491152
2.183560,-15.142099,3.093216
2.183560,-14.933145,4.695281
2.183560,-14.718680,6.297346
2.183560,-14.498703,7.899411
2.183560,-14.273215,9.501475
2.183560,-14.042215,11.103540
1.464065,-16.796550,-12.927431
1.464065,-16.630212,-11.325366
1.464065,-16.458363,-9.723302
1.464065,-16.281003,-8.121237
1.464065,-16.098131,-6.519172
1.464065,-15.909749,-4.917107
1.464065,-15.715855,-3.315043
1.464065,-15.516449,-1.712978
1.464065,-15.311533,-0.110913
1.464065,-15.101105,1.491152
1.464065,-14.885166,3.093216
1.464065,-14.663716,4.695281
1.464065,-14.436755,6.297346
1.464065,-14.204282,7.899411
1.464065,-13.966299,9.501475
1.464065,-13.722804,11.103540
0.744570,-16.645410,-12.927431
0.744570,-16.466577,-11.325366
0.744570,-16.282232,-9.723302
0.744570,-16.092376,-8.121237
0.744570,-15.897009,-6.519172
0.744570,-15.696130,-4.917107
0.744570,-15.489740,-3.315043
0.744570,-15.277839,-1.712978
0.744570,-15.060427,-0.110913
0.744570,-14.837504,1.491152
0.744570,-14.609069,3.093216
0.744570,-14.375123,4.695281
0.744570,-14.135666,6.297346
0.744570,-13.890698,7.899411
0.744570,-13.640219,9.501475
0.744570,-13.384228,11.103540
0.025075,-16.475106,-12.927431
0.025075,-16.283777,-11.325366
0.025075,-16.086937,-9.723302
0.025075,-15.884585,-8.121237
0.025075,-15.676722,-6.519172
0.025075,-15.463348,-4.917107
0.025075,-15.244462,-3.315043
0.025075,-15.020065,-1.712978
0.025075,-14.790157,-0.110913
0.025075,-14.554738,1.491152
0.025075,-14.313808,3.093216
0.025075,-14.067366,4.695281
0.025075,-13.815414,6.297346
0.025075,-13.557950,7.899411
0.025075,-13.294974,9.501475
0.025075,-13.026488,11.103540
6.168438,-16.036527,-12.927431
9.687039,-16.059572,-11.325366
11.746268,-16.079861,-9.723302
12.839259,-16.097395,-8.121237
13.339214,-16.112173,-6.519172
13.514976,-16.124196,-4.917107
13.546606,-16.133462,-3.315043
13.540952,-16.139974,-1.712978
13.547228,-16.143729,-0.110913
13.572582,-16.144729,1.491152
13.597673,-16.142974,3.093216
13.592243,-16.138463,4.695281
13.530695,-16.131196,6.297346
13.407659,-16.121173,7.899411
13.253571,-16.108395,9.501475
13.150247,-16.092862,11.103540
0.419634,-18.001433,-13.373786
0.419634,-16.161379,-13.478311
0.419634,-14.376253,-13.386775
0.419634,-12.623672,-13.179072
0.419634,-10.884589,-12.923185
0.419634,-9.143298,-12.675182
0.419634,-7.387428,-12.479216
0.419634,-5.607948,-12.367530
0.419634,-3.799161,-12.360448
0.419634,-1.958711,-12.466387
0.419634,-0.087579,-12.681844
0.419634,1.809918,-12.991407
0.419634,3.726122,-13.367749
0.419634,5.650042,-13.771627
0.419634,7.567344,-14.151888
0.419634,9.460362,-14.445463
0.419634,11.308087,-14.577371
0.419634,13.086176,-14.460716
0.419634,14.766946,-13.996688
0.419634,16.319379,-13.074566
1.337709,-18.277363,-13.121461
1.337709,-16.374432,-13.394895
1.337709,-14.543588,-13.411014
1.337709,-12.758508,-13.263785
1.337709,-10.996675,-13.033573
1.337709,-9.239383,-12.787154
1.337709,-7.471734,-12.577704
1.337709,-5.682638,-12.444808
1.337709,-3.864815,-12.414451
1.337709,-2.014792,-12.499028
1.337709,-0.132908,-12.697334
1.337709,1.776692,-12.994572
1.337709,3.706055,-13.362349
1.337709,5.643416,-13.758676
1.337709,7.573203,-14.127971
1.337709,9.476037,-14.401053
1.337709,11.328726,-14.495149
1.337709,13.104273,-14.313890
1.337709,14.771870,-13.747311
1.337709,16.296902,-12.671853
2.255784,-18.564988,-12.992379
2.255784,-16.609359,-13.407701
2.255784,-14.741986,-13.507994
2.255784,-12.932616,-13.401249
2.255784,-11.155278,-13.180167
2.255784,-9.388285,-12.922162
2.255784,-7.614231,-12.689360
2.255784,-5.819994,-12.528599
2.255784,-3.996735,-12.471428
2.255784,-2.139900,-12.534109
2.255784,-0.249214,-12.717617
2.255784,1.671312,-13.007637
2.255784,3.613384,-13.374567
2.255784,5.564427,-13.773516
2.255784,7.507581,-14.144308
2.255784,9.421705,-14.411474
2.255784,11.281372,-14.484262
2.255784,13.056874,-14.256629
2.255784,14.714220,-13.607244
2.255784,16.215136,-12.399491
3.173859,-18.842144,-12.939641
3.173859,-16.844668,-13.471106
3.173859,-14.950108,-13.635219
3.173859,-13.124453,-13.553376
3.173859,-11.338438,-13.330042
3.173859,-9.567539,-13.052755
3.173859,-7.791974,-12.792120
3.173859,-5.996706,-12.601816
3.173859,-4.171439,-12.518589
3.173859,-2.310622,-12.562257
3.173859,-0.413446,-12.735709
3.173859,1.516157,-13.024904
3.173859,3.469509,-13.398872
3.173859,5.433191,-13.809711
3.173859,7.389040,-14.192592
3.173859,9.314152,-14.465756
3.173859,11.180877,-14.530513
3.173859,12.956825,-14.271246
3.173859,14.604861,-13.555405
3.173859,16.083109,-12.233514
4.091935,-19.085021,-12.938557
4.091935,-17.058186,-13.557983
4.091935,-15.146687,-13.765720
4.091935,-13.313130,-13.695246
4.091935,-11.525290,-13.461590
4.091935,-9.756108,-13.161337
4.091935,-7.983692,-12.872623
4.091935,-6.191321,-12.655140
4.091935,-4.367440,-12.550132
4.091935,-2.505661,-12.580397
4.091935,-0.604765,-12.750288
4.091935,1.331299,-13.045709
4.091935,3.293415,-13.434120
4.091935,5.267298,-13.864533
4.091935,7.233496,-14.267515
4.091935,9.167388,-14.555185
4.091935,11.039188,-14.621217
4.091935,12.813938,-14.340838
4.091935,14.451516,-13.570829
4.091935,15.906629,-12.149523
5.010010,-19.270495,-12.978343
5.010010,-17.228860,-13.653261
5.010010,-15.311918,-13.883097
5.010010,-13.479476,-13.811311
5.010010,-11.696880,-13.561605
5.010010,-9.935008,-13.237925
5.010010,-8.170275,-12.924457
5.010010,-6.384631,-12.685631
5.010010,-4.565560,-12.566117
5.010010,-2.706084,-12.590830
5.010010,-0.804758,-12.764924
5.010010,1.134327,-13.073798
5.010010,3.101546,-13.483090
5.010010,5.081735,-13.938684
5.010010,7.054200,-14.366702
5.010010,8.992707,-14.673512
5.010010,10.865490,-14.745722
5.010010,12.635246,-14.450183
5.010010,14.259136,-13.633986
5.010010,15.688789,-12.124468
5.928085,-19.378046,-13.055249
5.928085,-17.338153,-13.748962
5.928085,-15.428442,-13.977998
5.928085,-13.606727,-13.892936
5.928085,-11.836645,-13.623574
5.928085,-10.087654,-13.278929
5.928085,-8.335035,-12.947234
5.928085,-6.559891,-12.695943
5.928085,-4.749145,-12.571726
5.928085,-2.895546,-12.600474
5.928085,-0.997662,-12.787295
5.928085,0.940116,-13.116514
5.928085,2.907574,-13.551677
5.928085,4.888679,-14.035547
5.928085,6.861571,-14.490105
5.928085,8.798572,-14.816551
5.928085,10.666180,-14.895305
5.928085,12.425072,-14.586001
5.928085,14.030103,-13.727496
5.928085,15.430303,-12.137863
6.846160,-19.391365,-13.166838
6.846160,-17.371120,-13.840337
6.846160,-15.482050,-14.045615
6.846160,-13.680967,-13.936828
6.846160,-11.930690,-13.646693
6.846160,-10.200044,-13.286485
6.846160,-8.463862,-12.946039
6.846160,-6.702981,-12.693752
6.846160,-4.904248,-12.576578
6.846160,-3.060514,-12.620031
6.846160,-1.170638,-12.828188
6.846160,0.760516,-13.183681
6.846160,2.722075,-13.647705
6.846160,4.697161,-14.160013
6.846160,6.662890,-14.638920
6.846160,8.590369,-14.981298
6.846160,10.444701,-15.062580
6.846160,12.184980,-14.736760
6.846160,13.764297,-13.836389
6.846160,15.129731,-12.172580
7.764236,-19.299521,-13.307819
7.764236,-17.317147,-13.923250
7.764236,-15.462118,-14.084128
7.764236,-13.691376,-13.944148
7.764236,-11.967934,-13.635335
7.764236,-10.260874,-13.268047
7.764236,-8.545348,-12.930975
7.764236,-6.802582,-12.691137
7.764236,-5.019870,-12.593887
7.764236,-3.190575,-12.662908
7.764236,-1.314134,-12.900215
7.764236,0.603947,-13.286154
7.764236,2.552091,-13.779404
7.764236,4.512653,-14.316975
7.764236,6.461913,-14.814206
7.764236,8.370083,-15.164770
7.764236,10.201305,-15.240671
7.764236,11.913649,-14.892244
7.764236,13.459116,-13.948156
7.764236,14.783634,-12.215405
8.682311,-19.097537,-13.467991
8.682311,-17.170259,-13.993060
8.682311,-15.361762,-14.094145
8.682311,-13.630315,-13.920206
8.682311,-11.940187,-13.598781
8.682311,-10.261648,-13.235988
8.682311,-8.570971,-12.916523
8.682311,-6.850428,-12.703663
8.682311,-5.088294,-12.639262
8.682311,-3.278842,-12.743754
8.682311,-1.422351,-13.016155
8.682311,0.474903,-13.434055
8.682311,2.400641,-13.953627
8.682311,4.336584,-14.509623
8.682311,6.258449,-15.015372
8.682311,8.135956,-15.362785
8.682311,9.932820,-15.422349
8.682311,11.606758,-15.043133
8.682311,13.109483,-14.052785
8.682311,14.386709,-12.257530
9.600386,-18.786249,-13.632736
9.600386,-16.928975,-14.045150
9.600386,-15.177736,-14.079080
9.600386,-13.493299,-13.874561
9.600386,-11.842227,-13.550948
9.600386,-10.196874,-13.206922
9.600386,-8.535387,-12.920483
9.600386,-6.841707,-12.748957
9.600386,-5.105567,-12.728990
9.600386,-3.322493,-12.876551
9.600386,-1.493805,-13.186931
9.600386,0.373387,-13.634746
9.600386,2.266177,-14.173932
9.600386,4.165867,-14.737748
9.600386,6.047967,-15.238776
9.600386,7.882193,-15.568921
9.600386,9.632468,-15.599408
9.600386,11.256923,-15.180789
9.600386,12.707896,-14.142934
9.600386,13.931932,-12.295037
10.518461,-18.371501,-13.785914
10.518461,-16.595773,-14.076842
10.518461,-14.910153,-14.046132
10.518461,-13.278963,-13.821139
10.518461,-11.671973,-13.509764
10.518461,-10.064404,-13.200459
10.518461,-8.436922,-12.962227
10.518461,-6.775648,-12.844619
10.518461,-5.072147,-12.877737
10.518461,-3.323435,-13.072231
10.518461,-1.531977,-13.419304
10.518461,0.294312,-13.890706
10.518461,2.142069,-14.438738
10.518461,3.992483,-14.996252
10.518461,5.821292,-15.476646
10.518461,7.598784,-15.773873
10.518461,9.289802,-15.762431
10.518461,10.853736,-15.297371
10.518461,12.244529,-14.214293
10.518461,13.410674,-12.329346
11.436537,-17.862891,-13.914315
11.436537,-16.176385,-14.089894
11.436537,-14.562242,-14.007172
11.436537,-12.989177,-13.777828
11.436537,-11.430883,-13.495759
11.436537,-9.866037,-13.237076
11.436537,-8.278299,-13.060106
11.436537,-6.656310,-13.005392
11.436537,-4.993694,-13.095695
11.436537,-3.289057,-13.335989
11.436537,-1.545988,-13.713465
11.436537,0.226943,-14.197531
11.436537,2.016183,-14.739809
11.436537,3.803196,-15.274139
11.436537,5.564464,-15.716575
11.436537,7.271488,-15.965388
11.436537,8.890784,-15.901065
11.436537,10.383890,-15.386308
11.436537,11.707356,-14.266036
11.436537,12.812756,-12.367383
12.354612,-17.272523,-14.012132
12.354612,-15.679271,-14.092392
12.354612,-14.140377,-13.978622
12.354612,-12.629493,-13.764876
12.354612,-11.124681,-13.529452
12.354612,-9.608422,-13.334889
12.354612,-8.067609,-13.227971
12.354612,-6.493551,-13.239722
12.354612,-4.881969,-13.385409
12.354612,-3.233001,-13.664542
12.354612,-1.551200,-14.060875
12.354612,0.154470,-14.542402
12.354612,1.870626,-15.061362
12.354612,3.579474,-15.554234
12.354612,5.258803,-15.941742
12.354612,6.881989,-16.128852
12.354612,8.417994,-16.004770
12.354612,9.831364,-15.442949
12.354612,11.082230,-14.301081
12.354612,12.126310,-12.421103
13.272687,-16.614280,-14.083540
13.272687,-15.115653,-14.098628
13.272687,-13.654652,-13.979411
13.272687,-12.210074,-13.801573
13.272687,-10.764491,-13.627324
13.272687,-9.304250,-13.505395
13.272687,-7.819474,-13.471042
13.272687,-6.304063,-13.546040
13.272687,-4.755690,-13.738690
13.272687,-3.175808,-14.043814
13.272687,-1.569642,-14.442757
13.272687,0.053806,-14.903388
13.272687,1.681759,-15.380095
13.272687,3.297662,-15.813794
13.272687,4.881187,-16.131919
13.272687,6.408228,-16.248429
13.272687,7.850905,-16.063805
13.272687,9.177561,-15.465052
13.272687,10.352764,-14.325696
13.272687,11.337306,-12.505786
14.190762,-15.904129,-14.141626
14.190762,-14.500409,-14.125906
14.190762,-13.120147,-14.026455
14.190762,-11.747144,-13.901093
14.190762,-10.368303,-13.796566
14.190762,-8.973631,-13.748550
14.190762,-7.556235,-13.781647
14.190762,-6.112323,-13.909389
14.190762,-4.641208,-14.134233
14.190762,-3.145301,-14.447568
14.190762,-1.630119,-14.829709
14.190762,-0.104276,-15.249897
14.190762,1.420507,-15.666305
14.190762,2.929410,-16.026032
14.190762,4.404512,-16.265105
14.190762,5.824788,-16.308479
14.190762,7.166111,-16.070038
14.190762,8.401254,-15.452593
14.190762,9.499888,-14.347883
14.190762,10.428579,-12.636576
15.108838,-15.161695,-14.202756
15.108838,-13.853920,-14.187949
15.108838,-12.558839,-14.127833
15.108838,-11.264802,-14.063989
15.108838,-9.962592,-14.029317
15.108838,-8.645424,-14.048041
15.108838,-7.308943,-14.135701
15.108838,-5.951226,-14.299160
15.108838,-4.572783,-14.536600
15.108838,-3.176554,-14.837524
15.108838,-1.767913,-15.182754
15.108838,-0.354664,-15.544433
15.108838,1.052958,-15.886025
15.108838,2.442285,-16.162313
15.108838,3.798217,-16.319401
15.108838,5.103223,-16.294712
15.108838,6.337341,-16.016991
15.108838,7.478175,-15.406301
15.108838,8.500901,-14.374028
15.108838,9.378260,-12.822875
16.026913,-14.413001,-14.276794
16.026913,-13.204623,-14.285784
16.026913,-12.001852,-14.274761
16.026913,-10.796887,-14.271568
16.026913,-9.583730,-14.297615
16.026913,-8.358187,-14.367875
16.026913,-7.117866,-14.490884
16.026913,-5.862178,-14.668743
16.026913,-4.592338,-14.897117
16.026913,-3.311364,-15.165235
16.026913,-2.024076,-15.455888
16.026913,-0.737099,-15.745434
16.026913,0.541141,-16.003792
16.026913,1.800414,-16.194448
16.026913,3.028686,-16.274448
16.026913,4.212121,-16.194406
16.026913,5.335080,-15.898498
16.026913,6.380121,-15.324463
16.026913,7.327997,-14.403606
16.026913,8.157660,-13.060794
16.944988,-13.693809,-14.355197
16.944988,-12.591714,-14.398102
16.944988,-11.491500,-14.434295
16.944988,-10.388371,-14.480892
16.944988,-9.278783,-14.550548
16.944988,-8.160437,-14.651460
16.944988,-7.032288,-14.787367
16.944988,-5.894536,-14.957548
16.944988,-4.748634,-15.156825
16.944988,-3.597280,-15.375559
16.944988,-2.444424,-15.599655
16.944988,-1.295264,-15.810556
16.944988,-0.156249,-15.985250
16.944988,0.964927,-16.096264
16.944988,2.059316,-16.111667
16.944988,3.116725,-15.995069
16.944988,4.125709,-15.705621
16.944988,5.073575,-15.198016
16.944988,5.946381,-14.422488
16.944988,6.728935,-13.324812
17.863063,-13.052633,-14.400225
17.863063,-12.067201,-14.473920
17.863063,-11.082481,-14.545077
17.863063,-10.095817,-14.623169
17.863063,-9.105349,-14.714839
17.863063,-8.110011,-14.823893
17.863063,-7.109531,-14.951302
17.863063,-6.104430,-15.095204
17.863063,-5.096025,-15.250900
17.863063,-4.086425,-15.410859
17.863063,-3.078536,-15.564714
17.863063,-2.076055,-15.699264
17.863063,-1.083476,-15.798473
17.863063,-0.106084,-15.843470
17.863063,0.850040,-15.812550
17.863063,1.778020,-15.681174
17.863063,2.670188,-15.421966
17.863063,3.518079,-15.004719
17.863063,4.312438,-14.396388
17.863063,5.043212,-13.561096
-0.000000,-11.797558,13.069531
-0.000000,-10.245338,13.058117
-0.000000,-8.693117,12.765022
-0.000000,-7.140897,12.303900
-0.000000,-5.588676,11.767257
-0.000000,-4.036455,11.227906
-0.000000,-2.484235,10.740414
-0.000000,-0.932014,10.342563
-0.000000,0.620206,10.056796
-0.000000,2.172427,9.891670
-0.000000,3.724647,9.843315
-0.000000,5.276868,9.896876
-0.000000,6.829089,10.027975
-0.000000,8.381309,10.204160
-0.000000,9.933530,10.386355
-0.000000,11.485750,10.530318
-0.000000,13.037971,10.588088
-0.000000,14.590191,10.509442
-0.000000,16.142412,10.243345
-0.000000,17.694633,9.739403
0.962247,-14.008707,12.340895
0.962247,-12.316735,13.016054
0.962247,-10.624763,13.132085
0.962247,-8.932791,12.875175
0.962247,-7.240819,12.398836
0.962247,-5.548847,11.826136
0.962247,-3.856875,11.251937
0.962247,-2.164903,10.745129
0.962247,-0.472931,10.350864
0.962247,1.219041,10.092795
0.962247,2.911012,9.975309
0.962247,4.602984,9.985761
0.962247,6.294956,10.096713
0.962247,7.986928,10.268166
0.962247,9.678900,10.449795
0.962247,11.370872,10.583188
0.962247,13.062844,10.604077
0.962247,14.754816,10.444577
0.962247,16.446788,10.035419
0.962247,18.138760,9.308185
1.924494,-14.618972,12.030849
1.924494,-12.885144,12.958005
1.924494,-11.151316,13.226219
1.924494,-9.417488,13.048509
1.924494,-7.683660,12.600792
1.924494,-5.949832,12.024415
1.924494,-4.216004,11.428676
1.924494,-2.482175,10.893350
1.924494,-0.748347,10.471220
1.924494,0.985481,10.190595
1.924494,2.719309,10.057842
1.924494,4.453137,10.059909
1.924494,6.186965,10.166853
1.924494,7.920793,10.334361
1.924494,9.654622,10.506282
1.924494,11.388450,10.617148
1.924494,13.122278,10.594703
1.924494,14.856106,10.362427
1.924494,16.589934,9.842062
1.924494,18.323762,8.956137
2.886742,-14.604620,12.227512
2.886742,-12.871877,13.108118
2.886742,-11.139133,13.338212
2.886742,-9.406389,13.130631
2.886742,-7.673646,12.660930
2.886742,-5.940902,12.069891
2.886742,-4.208158,11.466047
2.886742,-2.475414,10.928200
2.886742,-0.742671,10.507935
2.886742,0.990073,10.232138
2.886742,2.722817,10.105520
2.886742,4.455560,10.113129
2.886742,6.188304,10.222867
2.886742,7.921048,10.388015
2.886742,9.653791,10.549743
2.886742,11.386535,10.639634
2.886742,13.119279,10.582198
2.886742,14.852022,10.297390
2.886742,16.584766,9.703132
2.886742,18.317510,8.717825
3.848989,-14.534361,12.509380
3.848989,-12.812714,13.299472
3.848989,-11.091066,13.464058
3.848989,-9.369418,13.210978
3.848989,-7.647770,12.711508
3.848989,-5.926123,12.102801
3.848989,-4.204475,11.490322
3.848989,-2.482827,10.950288
3.848989,-0.761180,10.532107
3.848989,0.960468,10.260815
3.848989,2.682116,10.139513
3.848989,4.403764,10.151810
3.848989,6.125411,10.264257
3.848989,7.847059,10.428787
3.848989,9.568707,10.585152
3.848989,11.290355,10.663363
3.848989,13.012002,10.586129
3.848989,14.733650,10.271292
3.848989,16.455298,9.634269
3.848989,18.176945,8.590486
4.811236,-14.674426,12.669819
4.811236,-12.957452,13.451532
4.811236,-11.240478,13.603346
4.811236,-9.523504,13.334635
4.811236,-7.806530,12.818108
4.811236,-6.089556,12.192215
4.811236,-4.372582,11.563552
4.811236,-2.655608,11.009267
4.811236,-0.938634,10.579466
4.811236,0.778340,10.299616
4.811236,2.495315,10.172953
4.811236,4.212289,10.182886
4.811236,5.929263,10.295402
4.811236,7.646237,10.461475
4.811236,9.363211,10.619466
4.811236,11.080185,10.697530
4.811236,12.797159,10.616026
4.811236,14.514133,10.289916
4.811236,16.231107,9.631173
4.811236,17.948081,8.551188
5.773483,-15.080527,12.648116
5.773483,-13.357025,13.538253
5.773483,-11.633524,13.752433
5.773483,-9.910023,13.511166
5.773483,-8.186521,12.996886
5.773483,-6.463020,12.356402
5.773483,-4.739518,11.703350
5.773483,-3.016017,11.120644
5.773483,-1.292516,10.662929
5.773483,0.430986,10.359030
5.773483,2.154487,10.214406
5.773483,3.877989,10.213599
5.773483,5.601490,10.322688
5.773483,7.324991,10.491738
5.773483,9.048493,10.657254
5.773483,10.771994,10.744630
5.773483,12.495495,10.670603
5.773483,14.218997,10.345702
5.773483,15.942498,9.676700
5.773483,17.666000,8.569069
6.735730,-15.676695,12.432887
6.735730,-13.938193,13.537175
6.735730,-12.199690,13.884075
6.735730,-10.461188,13.713149
6.735730,-8.722685,13.223402
6.735730,-6.984182,12.575844
6.735730,-5.245680,11.896052
6.735730,-3.507177,11.276727
6.735730,-1.768675,10.780256
6.735730,-0.030172,10.441270
6.735730,1.708330,10.269206
6.735730,3.446833,10.250867
6.735730,5.185335,10.352982
6.735730,6.923838,10.524762
6.735730,8.662341,10.700468
6.735730,10.400843,10.801963
6.735730,12.139346,10.741277
6.735730,13.877848,10.423166
6.735730,15.616351,9.747672
6.735730,17.354853,8.612680
7.697978,-16.321006,12.071986
7.697978,-14.565802,13.446757
7.697978,-12.810598,13.967441
7.697978,-11.055394,13.895588
7.697978,-9.300191,13.449365
7.697978,-7.544987,12.806237
7.697978,-5.789783,12.105658
7.697978,-4.034579,11.451754
7.697978,-2.279376,10.916006
7.697978,-0.524172,10.539939
7.697978,1.231032,10.337806
7.697978,2.986236,10.299274
7.697978,4.741439,10.392106
7.697978,6.496643,10.564851
7.697978,8.251847,10.749529
7.697978,10.007051,10.864312
7.697978,11.762254,10.816213
7.697978,13.517458,10.503773
7.697978,15.272662,9.819741
7.697978,17.027865,8.653763
8.660225,-16.858174,11.704827
8.660225,-15.092621,13.319155
8.660225,-13.327068,13.998644
8.660225,-11.561516,14.022481
