-22.910717,1.182368,8.132389
-23.389480,1.182368,9.781704
-23.365666,2.364737,-14.958016
-23.453955,2.364737,-13.308702
-23.190239,2.364737,-11.659387
-22.716243,2.364737,-10.010072
-22.152534,2.364737,-8.360758
-21.598517,2.364737,-6.711443
-21.132438,2.364737,-5.062128
-20.811382,2.364737,-3.412814
-20.671275,2.364737,-1.763499
-20.726882,2.364737,-0.114184
-20.971807,2.364737,1.535130
-21.378495,2.364737,3.184445
-21.898231,2.364737,4.833760
-22.461138,2.364737,6.483074
-22.976182,2.364737,8.132389
-23.331165,2.364737,9.781704
-22.699965,3.547105,-14.958016
-22.802452,3.547105,-13.308702
-22.576682,3.547105,-11.659387
-22.159111,3.547105,-10.010072
-21.665037,3.547105,-8.360758
-21.188598,3.547105,-6.711443
-20.802769,3.547105,-5.062128
-20.559369,3.547105,-3.412814
-20.489053,3.547105,-1.763499
-20.601318,3.547105,-0.114184
-20.884501,3.547105,1.535130
-21.305777,3.547105,3.184445
-21.811161,3.547105,4.833760
-22.325511,3.547105,6.483074
-22.752521,3.547105,8.132389
-22.974727,3.547105,9.781704
-22.032943,4.729474,-14.958016
-22.128032,4.729474,-13.308702
-21.919770,4.729474,-11.659387
-21.539343,4.729474,-10.010072
-21.096783,4.729474,-8.360758
-20.680956,4.729474,-6.711443
-20.359572,4.729474,-5.062128
-20.179178,4.729474,-3.412814
-20.165163,4.729474,-1.763499
-20.321754,4.729474,-0.114184
-20.632019,4.729474,1.535130
-21.057866,4.729474,3.184445
-21.540041,4.729474,4.833760
-21.998132,4.729474,6.483074
-22.330566,4.729474,8.132389
-21.458445,5.911842,-13.308702
-21.250865,5.911842,-11.659387
-20.891916,5.911842,-10.010072
-20.486360,5.911842,-8.360758
-20.117795,5.911842,-6.711443
-19.848662,5.911842,-5.062128
-19.720240,5.911842,-3.412814
-19.752649,5.911842,-1.763499
-19.944847,5.911842,-0.114184
-20.274634,5.911842,1.535130
-20.698648,5.911842,3.184445
-21.152369,5.911842,4.833760
-21.550114,5.911842,6.483074
-21.785042,5.911842,8.132389
-20.775377,7.094211,-14.958016
-20.805336,7.094211,-13.308702
-20.585227,7.094211,-11.659387
-20.235703,7.094211,-10.010072
-19.856256,7.094211,-8.360758
-19.525216,7.094211,-6.711443
-19.299755,7.094211,-5.062128
-19.215883,7.094211,-3.412814
-19.288452,7.094211,-1.763499
-19.511152,7.094211,-0.114184
-19.856513,7.094211,1.535130
-20.275906,7.094211,3.184445
-20.699540,7.094211,4.833760
-21.036466,7.094211,6.483074
-21.174573,7.094211,8.132389
-20.164246,8.276579,-13.308702
-19.922012,8.276579,-11.659387
-19.573474,8.276579,-10.010072
-19.212854,8.276579,-8.360758
-18.913215,8.276579,-6.711443
-18.726460,8.276579,-5.062128
-18.683331,8.276579,-3.412814
-18.793411,8.276579,-1.763499
-19.045120,8.276579,-0.114184
-19.405722,8.276579,1.535130
-19.821317,8.276579,3.184445
-20.216847,8.276579,4.833760
-20.496094,8.276579,6.483074
-20.541677,8.276579,8.132389
-20.215059,8.276579,9.781704
-19.514616,9.458948,-13.308702
-19.244272,9.458948,-11.659387
-18.891893,9.458948,-10.010072
-18.546433,9.458948,-8.360758
-18.275685,9.458948,-6.711443
-18.126285,9.458948,-5.062128
-18.123705,9.458948,-3.412814
-18.272258,9.458948,-1.763499
-18.555100,9.458948,-0.114184
-18.934222,9.458948,1.535130
-19.350457,9.458948,3.184445
-19.723479,9.458948,4.833760
-19.951799,9.458948,6.483074
-19.912771,9.458948,8.132389
-19.462586,9.458948,9.781704
-18.819779,10.641316,-13.308702
-18.518956,10.641316,-11.659387
-18.161524,10.641316,-10.010072
-17.831169,10.641316,-8.360758
-17.590416,10.641316,-6.711443
-17.480631,10.641316,-5.062128
-17.522019,10.641316,-3.412814
-17.713625,10.641316,-1.763499
-18.033334,10.641316,-0.114184
-18.437869,10.641316,1.535130
-18.862796,10.641316,3.184445
-19.222519,10.641316,4.833760
-19.410281,10.641316,6.483074
-19.298166,10.641316,8.132389
-18.737098,10.641316,9.781704
-18.026968,11.823685,-13.308702
-17.696908,11.823685,-11.659387
-17.336824,11.823685,-10.010072
-17.025134,11.823685,-8.360758
-16.819093,11.823685,-6.711443
-16.754799,11.823685,-5.062128
-16.847189,11.823685,-3.412814
-17.090038,11.823685,-1.763499
-17.455962,11.823685,-0.114184
-17.896419,11.823685,1.535130
-18.341702,11.823685,3.184445
-18.700948,11.823685,4.833760
-18.862133,11.823685,6.483074
-18.692071,11.823685,8.132389
-18.036417,11.823685,9.781704
-17.067308,13.006053,-13.308702
-16.712869,13.006053,-11.659387
-16.356149,13.006053,-10.010072
-16.070296,13.006053,-8.360758
-15.907299,13.006053,-6.711443
-15.897985,13.006053,-5.062128
-16.052022,13.006053,-3.412814
-16.357919,13.006053,-1.763499
-16.783023,13.006053,-0.114184
-17.273520,13.006053,1.535130
-17.754439,13.006053,3.184445
-18.129645,13.006053,4.833760
-18.281847,13.006053,6.483074
-18.072590,13.006053,8.132389
-17.342260,13.006053,9.781704
-15.855825,14.188421,-13.308702
-15.485477,14.188421,-11.659387
-15.141749,14.188421,-10.010072
-14.892520,14.188421,-8.360758
-14.784511,14.188421,-6.711443
-14.843279,14.188421,-5.062128
-15.073225,14.188421,-3.412814
-15.457588,14.188421,-1.763499
-15.958447,14.188421,-0.114184
-16.516720,14.188421,1.535130
-17.052166,14.188421,3.184445
-17.463383,14.188421,4.833760
-17.627810,14.188421,6.483074
-17.401724,14.188421,8.132389
-16.620242,14.188421,9.781704
-14.291439,15.370790,-13.308702
-13.917267,15.370790,-11.659387
-13.599773,15.370790,-10.010072
-13.401568,15.370790,-8.360758
-13.364104,15.370790,-6.711443
-13.507671,15.370790,-5.062128
-13.831400,15.370790,-3.412814
-14.313261,15.370790,-1.763499
-14.910065,15.370790,-0.114184
-15.557462,15.370790,1.535130
-16.169941,15.370790,3.184445
-16.640833,15.370790,4.833760
-16.842306,15.370790,6.483074
-16.625370,15.370790,8.132389
-12.256966,16.553158,-13.308702
-11.894667,16.553158,-11.659387
-11.620264,16.553158,-10.010072
-11.491097,16.553158,-8.360758
-11.543350,16.553158,-6.711443
-11.792046,16.553158,-5.062128
-12.231045,16.553158,-3.412814
-12.833050,16.553158,-1.763499
-13.549603,16.553158,-0.114184
-14.311084,16.553158,1.535130
-15.026716,16.553158,3.184445
-15.584559,16.553158,4.833760
-15.851515,16.553158,6.483074
-15.673323,16.553158,8.132389
-14.874565,16.553158,9.781704
-9.619120,17.735527,-13.308702
-9.288006,17.735527,-11.659387
-9.077162,17.735527,-10.010072
-9.038661,17.735527,-8.360758
-9.203417,17.735527,-6.711443
-9.581183,17.735527,-5.062128
-10.160554,17.735527,-3.412814
-10.908962,17.735527,-1.763499
-11.772681,17.735527,-0.114184
-12.676823,17.735527,1.535130
-13.525340,17.735527,3.184445
-14.201026,17.735527,4.833760
-14.565513,17.735527,6.483074
-14.459273,17.735527,8.132389
-13.701617,17.735527,9.781704
-6.228509,18.917895,-13.308702
-5.951505,18.917895,-11.659387
-5.828304,18.917895,-10.010072
-5.905709,18.917895,-8.360758
-6.209367,18.917895,-6.711443
-6.743762,18.917895,-5.062128
-7.492219,18.917895,-3.412814
-8.416903,18.917895,-1.763499
-9.458819,18.917895,-0.114184
-10.537809,18.917895,1.535130
-11.552560,18.917895,3.184445
-12.380593,18.917895,4.833760
-12.878274,18.917895,6.483074
-12.880805,18.917895,8.132389
-12.202230,18.917895,9.781704
-1.919640,20.100264,-13.308702
-1.723285,20.100264,-11.659387
-1.715422,20.100264,-10.010072
-1.937589,20.100264,-8.360758
-2.410161,20.100264,-6.711443
-3.132355,20.100264,-5.062128
-4.082228,20.100264,-3.412814
-5.216674,20.100264,-1.763499
-6.471431,20.100264,-0.114184
-7.761073,20.100264,1.535130
-8.979016,20.100264,3.184445
-9.997515,20.100264,4.833760
-10.667666,20.100264,6.483074
-10.819402,20.100264,8.132389
-10.261500,20.100264,9.781704
-1.151972,21.282632,-1.763499
-2.657828,21.282632,-0.114184
-4.197537,21.282632,1.535130
-5.659247,21.282632,3.184445
-6.909944,21.282632,4.833760
-7.795454,21.282632,6.483074
-8.140445,21.282632,8.132389
-7.748421,21.282632,9.781704
-1.431688,22.465001,3.184445
-2.959928,22.465001,4.833760
-4.107302,22.465001,6.483074
-4.693207,22.465001,8.132389
-10.715277,-18.866093,-13.308702
-14.505430,-18.866093,-11.659387
-16.636744,-18.866093,-10.010072
-17.686719,-18.866093,-8.360758
-18.089907,-18.866093,-6.711443
-18.156706,-18.866093,-5.062128
-18.092165,-18.866093,-3.412814
-18.014787,-18.866093,-1.763499
-17.975329,-18.866093,-0.114184
-17.975606,-18.866093,1.535130
-17.987289,-18.866093,3.184445
-17.970713,-18.866093,4.833760
-17.893676,-18.866093,6.483074
-17.750237,-18.866093,8.132389
-17.579526,-18.866093,9.781704
-17.484540,-18.866093,11.431018
-17.650947,-18.866093,13.080333
-13.489156,-17.817976,-13.308702
-16.855402,-17.817976,-11.659387
-18.660891,-17.817976,-10.010072
-19.465731,-17.817976,-8.360758
-19.688918,-17.817976,-6.711443
-19.627136,-17.817976,-5.062128
-19.473561,-17.817976,-3.412814
-19.336660,-17.817976,-1.763499
-19.258995,-17.817976,-0.114184
-19.236027,-17.817976,1.535130
-19.234914,-17.817976,3.184445
-19.213313,-17.817976,4.833760
-19.138187,-17.817976,6.483074
-19.004602,-17.817976,8.132389
-18.854531,-17.817976,9.781704
-18.795655,-17.817976,11.431018
-19.020166,-17.817976,13.080333
-15.819252,-16.769860,-13.308702
-18.794673,-16.769860,-11.659387
-20.302547,-16.769860,-10.010072
-20.886051,-16.769860,-8.360758
-20.949088,-16.769860,-6.711443
-20.775090,-16.769860,-5.062128
-20.545820,-16.769860,-3.412814
-20.360173,-16.769860,-1.763499
-20.252979,-16.769860,-0.114184
-20.213805,-16.769860,1.535130
-20.205755,-16.769860,3.184445
-20.184275,-16.769860,4.833760
-20.115954,-16.769860,6.483074
-19.997324,-16.769860,8.132389
-19.873664,-16.769860,9.781704
-19.857802,-16.769860,11.431018
-17.754695,-15.721744,-13.308702
-20.371389,-15.721744,-11.659387
-21.608974,-15.721744,-10.010072
-21.994158,-15.721744,-8.360758
-21.916214,-15.721744,-6.711443
-21.645782,-15.721744,-5.062128
-21.353677,-15.721744,-3.412814
-21.129681,-15.721744,-1.763499
-21.001354,-15.721744,-0.114184
-20.952831,-15.721744,1.535130
-20.943627,-15.721744,3.184445
-20.927435,-15.721744,4.833760
-20.870932,-15.721744,6.483074
-20.772580,-15.721744,8.132389
-20.681426,-15.721744,9.781704
-20.715905,-15.721744,11.431018
-19.342898,-14.673628,-13.308702
-21.631849,-14.673628,-11.659387
-22.625460,-14.673628,-10.010072
-22.834429,-14.673628,-8.360758
-22.633861,-14.673628,-6.711443
-22.282069,-14.673628,-5.062128
-21.939376,-14.673628,-3.412814
-21.686917,-14.673628,-1.763499
-21.545444,-14.673628,-0.114184
-21.494122,-14.673628,1.535130
-21.489336,-14.673628,3.184445
-21.483491,-14.673628,4.833760
-21.443814,-14.673628,6.483074
-21.371156,-14.673628,8.132389
-21.318795,-14.673628,9.781704
-21.411237,-14.673628,11.431018
-20.629181,-13.625511,-13.308702
-22.620135,-13.625511,-11.659387
-23.394945,-13.625511,-10.010072
-23.448763,-13.625511,-8.360758
-23.142989,-13.625511,-6.711443
-22.724068,-13.625511,-5.062128
-22.342297,-13.625511,-3.412814
-22.070625,-13.625511,-1.763499
-21.923454,-13.625511,-0.114184
-21.875445,-13.625511,1.535130
-21.880313,-13.625511,3.184445
-21.889637,-13.625511,4.833760
-21.871655,-13.625511,6.483074
-21.830072,-13.625511,8.132389
-21.822858,-13.625511,9.781704
-21.981049,-13.625511,11.431018
-21.656405,-12.577395,-13.308702
-23.377734,-12.577395,-11.659387
-23.957647,-12.577395,-10.010072
-23.876210,-12.577395,-8.360758
-23.481579,-12.577395,-6.711443
-23.008793,-12.577395,-5.062128
-22.598586,-12.577395,-3.412814
-22.316181,-12.577395,-1.763499
-22.170096,-12.577395,-0.114184
-22.130943,-12.577395,1.535130
-22.150236,-12.577395,3.184445
-22.179186,-12.577395,4.833760
-22.187505,-12.577395,6.483074
-22.182214,-12.577395,8.132389
-22.226434,-12.577395,9.781704
-22.458197,-12.577395,11.431018
-22.464595,-11.529279,-13.308702
-23.943174,-11.529279,-11.659387
-24.350694,-11.529279,-10.010072
-24.152600,-11.529279,-8.360758
-23.684263,-11.529279,-6.711443
-23.169781,-11.529279,-5.062128
-22.740783,-11.529279,-3.412814
-22.455229,-11.529279,-1.763499
-22.316215,-11.529279,-0.114184
-22.290770,-11.529279,1.535130
-22.328662,-11.529279,3.184445
-22.381200,-11.529279,4.833760
-22.420033,-11.529279,6.483074
-22.455955,-11.529279,8.132389
-22.557705,-11.529279,9.781704
-22.870772,-11.529279,11.431018
-20.226202,-10.481163,-14.958016
-23.090571,-10.481163,-13.308702
-24.351647,-10.481163,-11.659387
-24.607753,-10.481163,-10.010072
-24.310171,-10.481163,-8.360758
-23.781953,-10.481163,-6.711443
-23.236715,-10.481163,-5.062128
-22.797446,-10.481163,-3.412814
-22.515304,-10.481163,-1.763499
-22.388423,-10.481163,-0.114184
-22.380711,-10.481163,1.535130
-22.440655,-10.481163,3.184445
-22.520120,-10.481163,4.833760
-22.593156,-10.481163,6.483074
-22.674792,-10.481163,8.132389
-22.839847,-10.481163,9.781704
-23.241725,-10.481163,11.431018
-20.974675,-9.433046,-14.958016
-23.567574,-9.433046,-13.308702
-24.634638,-9.433046,-11.659387
-24.758651,-9.433046,-10.010072
-24.377197,-9.433046,-8.360758
-23.801467,-9.433046,-6.711443
-23.235060,-9.433046,-5.062128
-22.792785,-9.433046,-3.412814
-22.519461,-9.433046,-1.763499
-22.408722,-9.433046,-0.114184
-22.421816,-9.433046,1.535130
-22.506411,-9.433046,3.184445
-22.615392,-9.433046,4.833760
-22.725667,-9.433046,6.483074
-22.856968,-9.433046,8.132389
-23.090650,-9.433046,9.781704
-23.588499,-9.433046,11.431018
-21.577333,-8.384930,-14.958016
-23.924897,-8.384930,-13.308702
-24.819554,-8.384930,-11.659387
-24.829011,-8.384930,-10.010072
-24.377614,-8.384930,-8.360758
-23.765159,-8.384930,-6.711443
-23.185687,-8.384930,-5.062128
-22.746288,-8.384930,-3.412814
-22.485906,-8.384930,-1.763499
-22.394135,-8.384930,-0.114184
-22.430027,-8.384930,1.535130
-22.540890,-8.384930,3.184445
-22.681094,-8.384930,4.833760
-22.830866,-8.384930,6.483074
-23.015101,-8.384930,8.132389
-23.322156,-8.384930,9.781704
-23.922656,-8.384930,11.431018
-22.061262,-7.336814,-14.958016
-24.187511,-7.336814,-13.308702
-24.929352,-7.336814,-11.659387
-24.839876,-7.336814,-10.010072
-24.330654,-7.336814,-8.360758
-23.690547,-7.336814,-6.711443
-23.104499,-7.336814,-5.062128
-22.672348,-7.336814,-3.412814
-22.427619,-7.336814,-1.763499
-22.356332,-7.336814,-0.114184
-22.415803,-7.336814,1.535130
-22.553444,-7.336814,3.184445
-22.725567,-7.336814,4.833760
-22.916185,-7.336814,6.483074
-23.155815,-7.336814,8.132389
-23.540278,-7.336814,9.781704
-24.249504,-7.336814,11.431018
-24.375695,-6.288698,-13.308702
-24.982167,-6.288698,-11.659387
-24.807338,-6.288698,-10.010072
-24.250466,-6.288698,-8.360758
-23.589938,-6.288698,-6.711443
-23.002066,-6.288698,-5.062128
-22.579891,-6.288698,-3.412814
-22.351987,-6.288698,-1.763499
-22.301260,-6.288698,-0.114184
-22.383752,-6.288698,1.535130
-22.547440,-6.288698,3.184445
-22.751041,-6.288698,4.833760
-22.982816,-6.288698,6.483074
-23.279366,-6.288698,8.132389
-23.744437,-6.288698,9.781704
-24.567723,-6.288698,11.431018
-22.758079,-5.240581,-14.958016
-24.504660,-5.240581,-13.308702
-24.990941,-5.240581,-11.659387
-24.742168,-5.240581,-10.010072
-24.145750,-5.240581,-8.360758
-23.470062,-5.240581,-6.711443
-22.883244,-5.240581,-5.062128
-22.472007,-5.240581,-3.412814
-22.260432,-5.240581,-1.763499
-22.228772,-5.240581,-0.114184
-22.332258,-5.240581,1.535130
-22.519894,-5.240581,3.184445
-22.753267,-5.240581,4.833760
-23.025342,-5.240581,6.483074
-23.379269,-5.240581,8.132389
-23.927181,-5.240581,9.781704
-24.869000,-5.240581,11.431018
-23.000831,-4.192465,-14.958016
-24.584183,-4.192465,-13.308702
-24.963047,-4.192465,-11.659387
-24.649440,-4.192465,-10.010072
-24.019381,-4.192465,-8.360758
-23.331694,-4.192465,-6.711443
-22.746813,-4.192465,-5.062128
-22.345575,-4.192465,-3.412814
-22.148033,-4.192465,-1.763499
-22.132251,-4.192465,-0.114184
-22.253108,-4.192465,1.535130
-22.461099,-4.192465,3.184445
-22.721139,-4.192465,4.833760
-23.031363,-4.192465,6.483074
-23.441930,-4.192465,8.132389
-24.073822,-4.192465,9.781704
-23.183834,-3.144349,-14.958016
-24.618231,-3.144349,-13.308702
-24.899925,-3.144349,-11.659387
-24.528163,-3.144349,-10.010072
-23.868039,-3.144349,-8.360758
-23.169288,-3.144349,-6.711443
-22.585096,-3.144349,-5.062128
-22.190893,-3.144349,-3.412814
-22.003163,-3.144349,-1.763499
-21.998243,-3.144349,-0.114184
-22.131122,-3.144349,1.535130
-22.354247,-3.144349,3.184445
-22.636325,-3.144349,4.833760
-22.981123,-3.144349,6.483074
-23.446269,-3.144349,8.132389
-24.162058,-3.144349,9.781704
-23.307633,-2.096233,-14.958016
-24.604591,-2.096233,-13.308702
-24.796702,-2.096233,-11.659387
-24.370908,-2.096233,-10.010072
-23.681837,-2.096233,-8.360758
-22.970600,-2.096233,-6.711443
-22.383594,-2.096233,-5.062128
-21.991305,-2.096233,-3.412814
-21.807111,-2.096233,-1.763499
-21.806081,-2.096233,-0.114184
-21.943779,-2.096233,1.535130
-22.175065,-2.096233,3.184445
-22.472900,-2.096233,4.833760
-22.847142,-2.096233,6.483074
-23.363354,-2.096233,8.132389
-24.161603,-2.096233,9.781704
-23.366350,-1.048116,-14.958016
-24.534498,-1.048116,-13.308702
-24.641826,-1.048116,-11.659387
-24.163436,-1.048116,-10.010072
-23.443951,-1.048116,-8.360758
-22.716318,-1.048116,-6.711443
-22.120610,-1.048116,-5.062128
-21.722830,-1.048116,-3.412814
-21.533711,-1.048116,-1.763499
-21.527516,-1.048116,-0.114184
-21.660847,-1.048116,1.535130
-21.891438,-1.048116,3.184445
-22.196965,-1.048116,4.833760
-22.593841,-1.048116,6.483074
-23.156024,-1.048116,8.132389
-24.033815,-1.048116,9.781704
-23.347313,0.000000,-14.958016
-24.392260,0.000000,-13.308702
-24.416691,0.000000,-11.659387
-23.884326,0.000000,-10.010072
-23.130244,0.000000,-8.360758
-22.379692,0.000000,-6.711443
-21.766881,0.000000,-5.062128
-21.353791,0.000000,-3.412814
-21.148972,0.000000,-1.763499
-21.126346,0.000000,-0.114184
-21.244011,0.000000,1.535130
-21.463039,0.000000,3.184445
-21.766281,0.000000,4.833760
-22.177170,0.000000,6.483074
-22.778519,0.000000,8.132389
-23.731326,0.000000,9.781704
-15.665866,-21.148370,-13.308702
-15.665866,-21.191147,-11.659387
-15.665866,-21.226907,-10.010072
-15.665866,-21.255648,-8.360758
-15.665866,-21.277372,-6.711443
-15.665866,-21.292078,-5.062128
-15.665866,-21.299767,-3.412814
-15.665866,-21.300438,-1.763499
-15.665866,-21.294091,-0.114184
-15.665866,-21.280726,1.535130
-15.665866,-21.260344,3.184445
-15.665866,-21.232944,4.833760
-15.665866,-21.198526,6.483074
-15.665866,-21.157090,8.132389
-15.665866,-21.108637,9.781704
-14.797221,-21.346359,-13.308702
-14.797221,-21.373224,-11.659387
-14.797221,-21.393072,-10.010072
-14.797221,-21.405902,-8.360758
-14.797221,-21.411715,-6.711443
-14.797221,-21.410509,-5.062128
-14.797221,-21.402286,-3.412814
-14.797221,-21.387046,-1.763499
-14.797221,-21.364787,-0.114184
-14.797221,-21.335511,1.535130
-14.797221,-21.299217,3.184445
-14.797221,-21.255906,4.833760
-14.797221,-21.205577,6.483074
-14.797221,-21.148230,8.132389
-14.797221,-21.083865,9.781704
-14.797221,-21.012483,11.431018
-13.928577,-21.519944,-13.308702
-13.928577,-21.530898,-11.659387
-13.928577,-21.534835,-10.010072
-13.928577,-21.531754,-8.360758
-13.928577,-21.521655,-6.711443
-13.928577,-21.504538,-5.062128
-13.928577,-21.480403,-3.412814
-13.928577,-21.449251,-1.763499
-13.928577,-21.411081,-0.114184
-13.928577,-21.365894,1.535130
-13.928577,-21.313689,3.184445
-13.928577,-21.254466,4.833760
-13.928577,-21.188225,6.483074
-13.928577,-21.114966,8.132389
-13.928577,-21.034690,9.781704
-13.928577,-20.947396,11.431018
-13.059933,-21.669127,-13.308702
-13.059933,-21.664170,-11.659387
-13.059933,-21.652195,-10.010072
-13.059933,-21.633202,-8.360758
-13.059933,-21.607192,-6.711443
-13.059933,-21.574164,-5.062128
-13.059933,-21.534118,-3.412814
-13.059933,-21.487054,-1.763499
-13.059933,-21.432973,-0.114184
-13.059933,-21.371874,1.535130
-13.059933,-21.303757,3.184445
-13.059933,-21.228623,4.833760
-13.059933,-21.146471,6.483074
-13.059933,-21.057301,8.132389
-13.059933,-20.961113,9.781704
-12.191289,-21.793908,-13.308702
-12.191289,-21.773039,-11.659387
-12.191289,-21.745152,-10.010072
-12.191289,-21.710248,-8.360758
-12.191289,-21.668326,-6.711443
-12.191289,-21.619387,-5.062128
-12.191289,-21.563429,-3.412814
-12.191289,-21.500454,-1.763499
-12.191289,-21.430462,-0.114184
-12.191289,-21.353451,1.535130
-12.191289,-21.269423,3.184445
-12.191289,-21.178377,4.833760
-12.191289,-21.080314,6.483074
-12.191289,-20.975232,8.132389
-12.191289,-20.863133,9.781704
-11.322645,-21.894285,-13.308702
-11.322645,-21.857505,-11.659387
-11.322645,-21.813707,-10.010072
-11.322645,-21.762892,-8.360758
-11.322645,-21.705058,-6.711443
-11.322645,-21.640207,-5.062128
-11.322645,-21.568339,-3.412814
-11.322645,-21.489452,-1.763499
-11.322645,-21.403548,-0.114184
-11.322645,-21.310626,1.535130
-11.322645,-21.210686,3.184445
-11.322645,-21.103729,4.833760
-11.322645,-20.989754,6.483074
-11.322645,-20.868761,8.132389
-11.322645,-20.740751,9.781704
-10.454001,-21.970261,-13.308702
-10.454001,-21.917569,-11.659387
-10.454001,-21.857860,-10.010072
-10.454001,-21.791133,-8.360758
-10.454001,-21.717388,-6.711443
-10.454001,-21.636625,-5.062128
-10.454001,-21.548845,-3.412814
-10.454001,-21.454047,-1.763499
-10.454001,-21.352232,-0.114184
-10.454001,-21.243398,1.535130
-10.454001,-21.127547,3.184445
-10.454001,-21.004678,4.833760
-10.454001,-20.874792,6.483074
-10.454001,-20.737888,8.132389
-10.454001,-20.593966,9.781704
-9.585357,-22.021833,-13.308702
-9.585357,-21.953230,-11.659387
-9.585357,-21.877609,-10.010072
-9.585357,-21.794971,-8.360758
-9.585357,-21.705315,-6.711443
-9.585357,-21.608641,-5.062128
-9.585357,-21.504949,-3.412814
-9.585357,-21.394240,-1.763499
-9.585357,-21.276512,-0.114184
-9.585357,-21.151768,1.535130
-9.585357,-21.020005,3.184445
-9.585357,-20.881225,4.833760
-9.585357,-20.735427,6.483074
-9.585357,-20.582611,8.132389
-9.585357,-20.422778,9.781704
-9.585357,-20.255927,11.431018
-8.716713,-22.049003,-13.308702
-8.716713,-21.964489,-11.659387
-8.716713,-21.872956,-10.010072
-8.716713,-21.774406,-8.360758
-8.716713,-21.668839,-6.711443
-8.716713,-21.556253,-5.062128
-8.716713,-21.436650,-3.412814
-8.716713,-21.310029,-1.763499
-8.716713,-21.176391,-0.114184
-8.716713,-21.035735,1.535130
-8.716713,-20.888061,3.184445
-8.716713,-20.733369,4.833760
-8.716713,-20.571660,6.483074
-8.716713,-20.402933,8.132389
-8.716713,-20.227188,9.781704
-8.716713,-20.044425,11.431018
-7.848069,-22.051770,-13.308702
-7.848069,-21.951344,-11.659387
-7.848069,-21.843901,-10.010072
-7.848069,-21.729439,-8.360758
-7.848069,-21.607960,-6.711443
-7.848069,-21.479463,-5.062128
-7.848069,-21.343949,-3.412814
-7.848069,-21.201417,-1.763499
-7.848069,-21.051867,-0.114184
-7.848069,-20.895299,1.535130
-7.848069,-20.731714,3.184445
-7.848069,-20.561110,4.833760
-7.848069,-20.383490,6.483074
-7.848069,-20.198851,8.132389
-7.848069,-20.007195,9.781704
-7.848069,-19.808521,11.431018
-6.979425,-22.030135,-13.308702
-6.979425,-21.913798,-11.659387
-6.979425,-21.790443,-10.010072
-6.979425,-21.660070,-8.360758
-6.979425,-21.522679,-6.711443
-6.979425,-21.378271,-5.062128
-6.979425,-21.226845,-3.412814
-6.979425,-21.068401,-1.763499
-6.979425,-20.902940,-0.114184
-6.979425,-20.730461,1.535130
-6.979425,-20.550964,3.184445
-6.979425,-20.364449,4.833760
-6.979425,-20.170917,6.483074
-6.979425,-19.970367,8.132389
-6.979425,-19.762799,9.781704
-6.979425,-19.548214,11.431018
-6.110781,-21.984097,-13.308702
-6.110781,-21.851848,-11.659387
-6.110781,-21.712582,-10.010072
-6.110781,-21.566297,-8.360758
-6.110781,-21.412995,-6.711443
-6.110781,-21.252676,-5.062128
-6.110781,-21.085338,-3.412814
-6.110781,-20.910983,-1.763499
-6.110781,-20.729610,-0.114184
-6.110781,-20.541220,1.535130
-6.110781,-20.345811,3.184445
-6.110781,-20.143385,4.833760
-6.110781,-19.933942,6.483074
-6.110781,-19.717480,8.132389
-6.110781,-19.494001,9.781704
-6.110781,-19.263504,11.431018
-5.242137,-21.913657,-13.308702
-5.242137,-21.765496,-11.659387
-5.242137,-21.610318,-10.010072
-5.242137,-21.448123,-8.360758
-5.242137,-21.278909,-6.711443
-5.242137,-21.102678,-5.062128
-5.242137,-20.919429,-3.412814
-5.242137,-20.729163,-1.763499
-5.242137,-20.531878,-0.114184
-5.242137,-20.327576,1.535130
-5.242137,-20.116256,3.184445
-5.242137,-19.897919,4.833760
-5.242137,-19.672564,6.483074
-5.242137,-19.440191,8.132389
-5.242137,-19.200800,9.781704
-5.242137,-18.954392,11.431018
-4.373493,-21.818814,-13.308702
-4.373493,-21.654742,-11.659387
-4.373493,-21.483652,-10.010072
-4.373493,-21.305545,-8.360758
-4.373493,-21.120420,-6.711443
-4.373493,-20.928278,-5.062128
-4.373493,-20.729117,-3.412814
-4.373493,-20.522939,-1.763499
-4.373493,-20.309744,-0.114184
-4.373493,-20.089530,1.535130
-4.373493,-19.862299,3.184445
-4.373493,-19.628050,4.833760
-4.373493,-19.386783,6.483074
-4.373493,-19.138499,8.132389
-4.373493,-18.883197,9.781704
-4.373493,-18.620877,11.431018
-3.504849,-21.699568,-13.308702
-3.504849,-21.519585,-11.659387
-3.504849,-21.332584,-10.010072
-3.504849,-21.138565,-8.360758
-3.504849,-20.937529,-6.711443
-3.504849,-20.729475,-5.062128
-3.504849,-20.514403,-3.412814
-3.504849,-20.292313,-1.763499
-3.504849,-20.063206,-0.114184
-3.504849,-19.827081,1.535130
-3.504849,-19.583939,3.184445
-3.504849,-19.333778,4.833760
-3.504849,-19.076600,6.483074
-3.504849,-18.812405,8.132389
-3.504849,-18.541191,9.781704
-3.504849,-18.262960,11.431018
-2.636205,-21.555920,-13.308702
-2.636205,-21.360025,-11.659387
-2.636205,-21.157113,-10.010072
-2.636205,-20.947182,-8.360758
-2.636205,-20.730235,-6.711443
-2.636205,-20.506269,-5.062128
-2.636205,-20.275286,-3.412814
-2.636205,-20.037285,-1.763499
-2.636205,-19.792266,-0.114184
-2.636205,-19.540230,1.535130
-2.636205,-19.281176,3.184445
-2.636205,-19.015104,4.833760
-2.636205,-18.742015,6.483074
-2.636205,-18.461907,8.132389
-2.636205,-18.174782,9.781704
-2.636205,-17.880640,11.431018
-1.767561,-21.387869,-13.308702
-1.767561,-21.176062,-11.659387
-1.767561,-20.957239,-10.010072
-1.767561,-20.731397,-8.360758
-1.767561,-20.498538,-6.711443
-1.767561,-20.258661,-5.062128
-1.767561,-20.011766,-3.412814
-1.767561,-19.757854,-1.763499
-1.767561,-19.496924,-0.114184
-1.767561,-19.228976,1.535130
-1.767561,-18.954010,3.184445
-1.767561,-18.672027,4.833760
-1.767561,-18.383026,6.483074
-1.767561,-18.087008,8.132389
-1.767561,-17.783971,9.781704
-1.767561,-17.473917,11.431018
-0.898917,-21.195415,-13.308702
-0.898917,-20.967697,-11.659387
-0.898917,-20.732962,-10.010072
-0.898917,-20.491209,-8.360758
-0.898917,-20.242439,-6.711443
-0.898917,-19.986650,-5.062128
-0.898917,-19.723844,-3.412814
-0.898917,-19.454020,-1.763499
-0.898917,-19.177179,-0.114184
-0.898917,-18.893319,1.535130
-0.898917,-18.602442,3.184445
-0.898917,-18.304548,4.833760
-0.898917,-17.999635,6.483074
-0.898917,-17.687705,8.132389
-0.898917,-17.368757,9.781704
-0.898917,-17.042792,11.431018
-0.030273,-20.978559,-13.308702
-0.030273,-20.734930,-11.659387
-0.030273,-20.484283,-10.010072
-0.030273,-20.226619,-8.360758
-0.030273,-19.961937,-6.711443
-0.030273,-19.690237,-5.062128
-0.030273,-19.411519,-3.412814
-0.030273,-19.125784,-1.763499
-0.030273,-18.833031,-0.114184
-0.030273,-18.533260,1.535130
-0.030273,-18.226472,3.184445
-0.030273,-17.912666,4.833760
-0.030273,-17.591842,6.483074
-0.030273,-17.264000,8.132389
-0.030273,-16.929141,9.781704
-0.030273,-16.587264,11.431018
-7.447138,-20.420094,-13.308702
-11.695135,-20.449438,-11.659387
-14.181237,-20.475274,-10.010072
-15.500801,-20.497600,-8.360758
-16.104395,-20.516418,-6.711443
-16.316592,-20.531727,-5.062128
-16.354779,-20.543527,-3.412814
-16.347954,-20.551818,-1.763499
-16.355530,-20.556600,-0.114184
-16.386140,-20.557874,1.535130
-16.416432,-20.555638,3.184445
-16.409877,-20.549894,4.833760
-16.335570,-20.540641,6.483074
-16.187028,-20.527879,8.132389
-16.000999,-20.511608,9.781704
-15.876256,-20.491828,11.431018
-0.506622,-22.922105,-13.768221
-0.506622,-20.579075,-13.875829
-0.506622,-18.305986,-13.781593
-0.506622,-16.074338,-13.567765
-0.506622,-13.859880,-13.304331
-0.506622,-11.642609,-13.049013
-0.506622,-9.406774,-12.847268
-0.506622,-7.140874,-12.732287
-0.506622,-4.837657,-12.724997
-0.506622,-2.494123,-12.834060
-0.506622,-0.111518,-13.055872
-0.506622,2.304657,-13.374565
-0.506622,4.744654,-13.762006
-0.506622,7.194474,-14.177796
-0.506622,9.635870,-14.569272
-0.506622,12.046341,-14.871505
-0.506622,14.399140,-15.007303
-0.506622,16.663268,-14.887208
-0.506622,18.803475,-14.409495
-0.506622,20.780264,-13.460176
-1.615012,-23.273461,-13.508454
-1.615012,-20.850365,-13.789952
-1.615012,-18.519062,-13.806547
-1.615012,-16.246032,-13.654975
-1.615012,-14.002604,-13.417974
-1.615012,-11.764958,-13.164287
-1.615012,-9.514124,-12.948661
-1.615012,-7.235981,-12.811844
-1.615012,-4.921258,-12.780592
-1.615012,-2.565534,-12.867663
-1.615012,-0.169239,-13.071818
-1.615012,2.262349,-13.377823
-1.615012,4.719101,-13.756447
-1.615012,7.186037,-14.164463
-1.615012,9.643330,-14.544649
-1.615012,12.066301,-14.825785
-1.615012,14.425421,-14.922657
-1.615012,16.686311,-14.736052
-1.615012,18.809745,-14.152763
-1.615012,20.751643,-13.045586
-2.723402,-23.639708,-13.375565
-2.723402,-21.149509,-13.803136
-2.723402,-18.771692,-13.906387
-2.723402,-16.467733,-13.796494
-2.723402,-14.204562,-13.568891
-2.723402,-11.954562,-13.303277
-2.723402,-9.695572,-13.063609
-2.723402,-7.410883,-12.898106
-2.723402,-5.089239,-12.839249
-2.723402,-2.724839,-12.903780
-2.723402,-0.317336,-13.092700
-2.723402,2.128163,-13.391273
-2.723402,4.601099,-13.769025
-2.723402,7.085457,-14.179741
-2.723402,9.559771,-14.561468
-2.723402,11.997117,-14.836514
-2.723402,14.365122,-14.911448
-2.723402,16.625956,-14.677101
-2.723402,18.736336,-14.008565
-2.723402,20.647526,-12.765191
-3.831791,-23.992623,-13.321272
-3.831791,-21.449139,-13.868411
-3.831791,-19.036703,-14.037364
-3.831791,-16.712008,-13.953107
-3.831791,-14.437788,-13.723187
-3.831791,-12.182815,-13.437722
-3.831791,-9.921902,-13.169400
-3.831791,-7.635899,-12.973483
-3.831791,-5.311698,-12.887801
-3.831791,-2.942229,-12.932758
-3.831791,-0.526461,-13.111325
-3.831791,1.930597,-13.409050
-3.831791,4.417896,-13.794047
-3.831791,6.918348,-14.217003
-3.831791,9.408826,-14.611176
-3.831791,11.860165,-14.892396
-3.831791,14.237157,-14.959064
-3.831791,16.498559,-14.692150
-3.831791,18.597084,-13.955197
-3.831791,20.479409,-12.594319
-4.940181,-24.301891,-13.320156
-4.940181,-21.721022,-13.957850
-4.940181,-19.287017,-14.171715
-4.940181,-16.952260,-14.099162
-4.940181,-14.675716,-13.858615
-4.940181,-12.422929,-13.549506
-4.940181,-10.166026,-13.252277
-4.940181,-7.883712,-13.028379
-4.940181,-5.561275,-12.920274
-4.940181,-3.190580,-12.951432
-4.940181,-0.770076,-13.126334
-4.940181,1.695209,-13.430468
-4.940181,4.193667,-13.830334
-4.940181,6.707108,-14.273442
-4.940181,9.210764,-14.688309
-4.940181,11.673284,-14.984463
-4.940181,14.056738,-15.052443
-4.940181,16.316614,-14.763795
-4.940181,18.401822,-13.971075
-4.940181,20.254689,-12.507851
-6.048571,-24.538064,-13.361116
-6.048571,-21.938350,-14.055939
-6.048571,-19.497414,-14.292553
-6.048571,-17.164076,-14.218650
-6.048571,-14.894209,-13.961579
-6.048571,-12.650732,-13.628353
-6.048571,-10.403611,-13.305640
-6.048571,-8.129863,-13.059770
-6.048571,-5.813551,-12.936732
-6.048571,-3.445789,-12.962173
-6.048571,-1.024738,-13.141402
-6.048571,1.444394,-13.459385
-6.048571,3.949350,-13.880749
-6.048571,6.470822,-14.349779
-6.048571,8.982458,-14.790422
-6.048571,11.450854,-15.106281
-6.048571,13.835560,-15.180620
-6.048571,16.089076,-14.876364
-6.048571,18.156856,-14.036096
-6.048571,19.977303,-12.482057
-7.156960,-24.675013,-13.440289
-7.156960,-22.077518,-14.154462
-7.156960,-19.645790,-14.390253
-7.156960,-17.326111,-14.302682
-7.156960,-15.072179,-14.025376
-7.156960,-12.845104,-13.670566
-7.156960,-10.613408,-13.329089
-7.156960,-8.353029,-13.070386
-7.156960,-6.047319,-12.942506
-7.156960,-3.687040,-12.972102
-7.156960,-1.270372,-13.164432
-7.156960,1.197096,-13.503361
-7.156960,3.702357,-13.951359
-7.156960,6.224993,-14.449499
-7.156960,8.737174,-14.917464
-7.156960,11.203652,-15.253538
-7.156960,13.581769,-15.334614
-7.156960,15.821452,-15.016188
-7.156960,17.865216,-14.132363
-7.156960,19.648160,-12.495847
-8.265350,-24.691973,-13.555170
-8.265350,-22.119497,-14.248532
-8.265350,-19.714052,-14.459865
-8.265350,-17.420645,-14.347869
-8.265350,-15.191931,-14.049177
-8.265350,-12.988215,-13.678345
-8.265350,-10.777449,-13.327859
-8.265350,-8.535234,-13.068131
-8.265350,-6.244819,-12.947501
-8.265350,-3.897102,-12.992236
-8.265350,-1.490630,-13.206531
-8.265350,0.968402,-13.572509
-8.265350,3.466151,-14.050219
-8.265350,5.981125,-14.577637
-8.265350,8.484183,-15.070668
-8.265350,10.938537,-15.423144
-8.265350,13.299748,-15.506823
-8.265350,15.515731,-15.171393
-8.265350,17.526752,-14.244467
-8.265350,19.265427,-12.531587
-9.373740,-24.575024,-13.700308
-9.373740,-22.050770,-14.333891
-9.373740,-19.688671,-14.499514
-9.373740,-17.433899,-14.355405
-9.373740,-15.239356,-14.037484
-9.373740,-13.065672,-13.659364
-9.373740,-10.881210,-13.312350
-9.373740,-8.662061,-13.065439
-9.373740,-6.392046,-12.965320
-9.373740,-4.062715,-13.036377
-9.373740,-1.673351,-13.280683
-9.373740,0.769035,-13.678005
-9.373740,3.249703,-14.185802
-9.373740,5.746181,-14.739227
-9.373740,8.228269,-15.251123
-9.373740,10.658036,-15.612026
-9.373740,12.989821,-15.690166
-9.373740,15.170232,-15.331463
-9.373740,17.138150,-14.359531
-9.373740,18.824724,-12.575676
-10.482129,-24.317828,-13.865204
-10.482129,-21.863730,-14.405759
-10.482129,-19.560883,-14.509826
-10.482129,-17.356147,-14.330757
-10.482129,-15.204024,-13.999852
-10.482129,-13.066659,-13.626359
-10.482129,-10.913837,-13.297472
-10.482129,-8.722985,-13.078334
-10.482129,-6.479173,-13.012033
-10.482129,-4.175110,-13.119608
-10.482129,-1.811149,-13.400042
-10.482129,0.604718,-13.830267
-10.482129,3.056854,-14.365164
-10.482129,5.521984,-14.937557
-10.482129,7.969189,-15.458223
-10.482129,10.359910,-15.815882
-10.482129,12.647946,-15.877203
-10.482129,14.779452,-15.486803
-10.482129,16.692946,-14.467246
-10.482129,18.319301,-12.619043
-11.590519,-23.921450,-14.034809
-11.590519,-21.556492,-14.459386
-11.590519,-19.326553,-14.494317
-11.590519,-17.181678,-14.283765
-11.590519,-15.079287,-13.950608
-11.590519,-12.984178,-13.596435
-11.590519,-10.868526,-13.301549
-11.590519,-8.711881,-13.124964
-11.590519,-6.501169,-13.104408
-11.590519,-4.230693,-13.256321
-11.590519,-1.902134,-13.575855
-11.590519,0.475452,-14.036878
-11.590519,2.885634,-14.591966
-11.590519,5.304602,-15.172411
-11.590519,7.701172,-15.688216
-11.590519,10.036781,-16.028097
-11.590519,12.265493,-16.059484
-11.590519,14.333991,-15.628518
-11.590519,16.181586,-14.560053
-11.590519,17.740210,-12.657657
-12.698909,-23.393331,-14.192504
-12.698909,-21.132210,-14.492012
-12.698909,-18.985827,-14.460397
-12.698909,-16.908753,-14.228768
-12.698909,-14.862495,-13.908210
-12.698909,-12.815497,-13.589783
-12.698909,-10.743146,-13.344524
-12.698909,-8.627764,-13.223447
-12.698909,-6.458612,-13.257542
-12.698909,-4.231892,-13.457772
-12.698909,-1.950741,-13.815081
-12.698909,0.374762,-14.300387
-12.698909,2.727602,-14.864582
-12.698909,5.083824,-15.438538
-12.698909,7.412535,-15.933101
-12.698909,9.675904,-16.239094
-12.698909,11.829159,-16.227314
-12.698909,13.820593,-15.748538
-12.698909,15.591558,-14.633517
-12.698909,17.076467,-12.692977
-13.807298,-22.745693,-14.324692
-13.807298,-20.598182,-14.505449
-13.807298,-18.542815,-14.420287
-13.807298,-16.539754,-14.184180
-13.807298,-14.555502,-13.893792
-13.807298,-12.562908,-13.627479
-13.807298,-10.541163,-13.445289
-13.807298,-8.475805,-13.388962
-13.807298,-6.358715,-13.481928
-13.807298,-4.188117,-13.729309
-13.807298,-1.968582,-14.117918
-13.807298,0.288978,-14.616261
-13.807298,2.567304,-15.174533
-13.807298,4.842795,-15.724622
-13.807298,7.085504,-16.180106
-13.807298,9.259141,-16.436258
-13.807298,11.321071,-16.370038
-13.807298,13.222315,-15.840099
-13.807298,14.907550,-14.686787
-13.807298,16.315108,-12.732137
-14.915688,-21.993948,-14.425394
-14.915688,-19.965182,-14.508021
-14.915688,-18.005634,-14.390895
-14.915688,-16.081751,-14.170845
-14.915688,-14.165601,-13.928478
-14.915688,-12.234874,-13.728177
-14.915688,-10.272881,-13.618106
-14.915688,-8.268556,-13.630203
-14.915688,-6.216450,-13.780186
-14.915688,-4.116739,-14.067552
-14.915688,-1.975218,-14.475574
-14.915688,0.196694,-14.971303
-14.915688,2.381959,-15.505569
-14.915688,4.557919,-16.012977
-14.915688,6.696291,-16.411914
-14.915688,8.763174,-16.604542
-14.915688,10.719044,-16.476801
-14.915688,12.518756,-15.898410
-14.915688,14.111545,-14.722865
-14.915688,15.441024,-12.787440
-16.024078,-21.155775,-14.498908
-16.024078,-19.247500,-14.514441
-16.024078,-17.387137,-14.391707
-16.024078,-15.547685,-14.208625
-16.024078,-13.706953,-14.029236
-16.024078,-11.847556,-13.903712
-16.024078,-9.956919,-13.868345
-16.024078,-8.027271,-13.945555
-16.024078,-6.055653,-14.143887
-16.024078,-4.043912,-14.458010
-16.024078,-1.998702,-14.868720
-16.024078,0.068514,-15.342935
-16.024078,2.141466,-15.833703
-16.024078,4.199074,-16.280192
-16.024078,6.215454,-16.607700
-16.024078,8.159910,-16.727646
-16.024078,9.996941,-16.537577
-16.024078,11.686237,-15.921165
-16.024078,13.182681,-14.748206
-16.024078,14.436347,-12.874621
-17.132467,-20.251505,-14.558707
-17.132467,-18.464080,-14.542523
-17.132467,-16.706525,-14.440139
-17.132467,-14.958213,-14.311080
-17.132467,-13.202468,-14.203470
-17.132467,-11.426564,-14.154038
-17.132467,-9.621723,-14.188112
-17.132467,-7.783120,-14.319620
-17.132467,-5.909877,-14.551097
-17.132467,-4.005066,-14.873673
-17.132467,-2.075710,-15.267083
-17.132467,-0.132780,-15.699665
-17.132467,1.808801,-16.128354
-17.132467,3.730161,-16.498690
-17.132467,5.608481,-16.744814
-17.132467,7.416987,-16.789468
-17.132467,9.124960,-16.543994
-17.132467,10.697728,-15.908339
-17.132467,12.096672,-14.771047
-17.132467,13.279220,-13.009268
-18.240857,-19.306127,-14.621640
-18.240857,-17.640874,-14.606397
-18.240857,-15.991784,-14.544507
-18.240857,-14.344023,-14.478780
-18.240857,-12.685856,-14.443086
-18.240857,-11.008641,-14.462362
-18.240857,-9.306834,-14.552607
-18.240857,-7.577987,-14.720887
-18.240857,-5.822748,-14.965330
-18.240857,-4.044862,-15.275129
-18.240857,-2.251170,-15.630541
-18.240857,-0.451611,-16.002888
-18.240857,1.340783,-16.354554
-18.240857,3.109881,-16.638991
-18.240857,4.836455,-16.800711
-18.240857,6.498183,-16.775294
-18.240857,8.069646,-16.489382
-18.240857,9.522327,-15.860681
-18.240857,10.824613,-14.797963
-18.240857,11.941798,-13.201062
-19.349247,-18.352779,-14.697862
-19.349247,-16.814092,-14.707117
-19.349247,-15.282545,-14.695768
-19.349247,-13.748204,-14.692481
-19.349247,-12.203432,-14.719297
-19.349247,-10.642888,-14.791628
-19.349247,-9.063527,-14.918266
-19.349247,-7.464598,-15.101371
-19.349247,-5.847649,-15.336480
-19.349247,-4.216522,-15.612505
-19.349247,-2.577355,-15.911731
-19.349247,-0.938584,-16.209816
-19.349247,0.689061,-16.475794
-19.349247,2.292555,-16.672073
-19.349247,3.856574,-16.754433
-19.349247,5.363500,-16.672030
-19.349247,6.793419,-16.367395
-19.349247,8.124120,-15.776430
-19.349247,9.331097,-14.828413
-19.349247,10.387548,-13.445998
-20.457636,-17.436996,-14.778577
-20.457636,-16.033646,-14.822747
-20.457636,-14.632689,-14.860008
-20.457636,-13.228021,-14.907979
-20.457636,-11.815128,-14.979690
-20.457636,-10.391084,-15.083578
-20.457636,-8.954556,-15.223493
-20.457636,-7.505802,-15.398694
-20.457636,-6.046668,-15.603847
-20.457636,-4.580592,-15.829033
-20.457636,-3.112605,-16.059738
-20.457636,-1.649323,-16.276859
-20.457636,-0.198959,-16.456706
-20.457636,1.228689,-16.570994
-20.457636,2.622228,-16.586851
-20.457636,3.968678,-16.466814
-20.457636,5.253467,-16.168829
-20.457636,6.460431,-15.646253
-20.457636,7.571817,-14.847852
-20.457636,8.568282,-13.717803
-21.566026,-16.620556,-14.824933
-21.566026,-15.365758,-14.900802
-21.566026,-14.111865,-14.974057
-21.566026,-12.855497,-15.054453
-21.566026,-11.594286,-15.148826
-21.566026,-10.326873,-15.261096
-21.566026,-9.052913,-15.392263
-21.566026,-7.773069,-15.540409
-21.566026,-6.489018,-15.700697
-21.566026,-5.203445,-15.865374
-21.566026,-3.920051,-16.023766
-21.566026,-2.643543,-16.162285
-21.566026,-1.379642,-16.264419
-21.566026,-0.135081,-16.310744
-21.566026,1.082398,-16.278912
-21.566026,2.264040,-16.143661
-21.566026,3.400080,-15.876809
-21.566026,4.479743,-15.447255
-21.566026,5.491238,-14.820983
-21.566026,6.421769,-13.961056
0.000000,-15.022408,13.454993
0.000000,-13.045890,13.443242
0.000000,-11.069371,13.141503
0.000000,-9.092853,12.666781
0.000000,-7.116335,12.114311
0.000000,-5.139816,11.559052
0.000000,-3.163298,11.057183
0.000000,-1.186779,10.647598
0.000000,0.789739,10.353402
0.000000,2.766257,10.183407
0.000000,4.742776,10.133625
0.000000,6.719294,10.188766
0.000000,8.695813,10.323732
0.000000,10.672331,10.505113
0.000000,12.648849,10.692681
0.000000,14.625368,10.840890
0.000000,16.601886,10.900364
0.000000,18.578404,10.819399
0.000000,20.554923,10.545454
0.000000,22.531441,10.026649
-1.161718,-17.837972,12.704867
-1.161718,-15.683502,13.399939
-1.161718,-13.529031,13.519391
-1.161718,-11.374560,13.254905
-1.161718,-9.220090,12.764517
-1.161718,-7.065619,12.174926
-1.161718,-4.911148,11.583792
-1.161718,-2.756677,11.062036
-1.161718,-0.602207,10.656143
-1.161718,1.552264,10.390463
-1.161718,3.706735,10.269512
-1.161718,5.861205,10.280273
-1.161718,8.015676,10.394497
-1.161718,10.170147,10.571006
-1.161718,12.324617,10.757992
-1.161718,14.479088,10.895319
-1.161718,16.633559,10.916825
-1.161718,18.788029,10.752621
-1.161718,20.942500,10.331395
-1.161718,23.096971,9.582713
-2.323437,-18.615052,12.385677
-2.323437,-16.407284,13.340178
-2.323437,-14.199516,13.616302
-2.323437,-11.991748,13.433350
-2.323437,-9.783980,12.972429
-2.323437,-7.576212,12.379053
-2.323437,-5.368443,11.765743
-2.323437,-3.160675,11.214629
-2.323437,-0.952907,10.780049
-2.323437,1.254861,10.491147
-2.323437,3.462629,10.354479
-2.323437,5.670397,10.356608
-2.323437,7.878165,10.466705
-2.323437,10.085934,10.639154
-2.323437,12.293702,10.816145
-2.323437,14.501470,10.930281
-2.323437,16.709238,10.907175
-2.323437,18.917006,10.668048
-2.323437,21.124774,10.132335
-2.323437,23.332543,9.220282
-3.485155,-18.596777,12.588140
-3.485155,-16.390390,13.494718
-3.485155,-14.184003,13.731598
-3.485155,-11.977616,13.517895
-3.485155,-9.771228,13.034340
-3.485155,-7.564841,12.425870
-3.485155,-5.358454,11.804217
-3.485155,-3.152066,11.250507
-3.485155,-0.945679,10.817847
-3.485155,1.260708,10.533916
-3.485155,3.467096,10.403564
-3.485155,5.673483,10.411397
-3.485155,7.879870,10.524372
-3.485155,10.086257,10.694390
-3.485155,12.292645,10.860888
-3.485155,14.499032,10.953430
-3.485155,16.705419,10.894300
-3.485155,18.911807,10.601092
-3.485155,21.118194,9.989308
-3.485155,23.324581,8.974941
-4.646873,-18.507313,12.878321
-4.646873,-16.315055,13.691715
-4.646873,-14.122797,13.861155
-4.646873,-11.930538,13.600611
-4.646873,-9.738280,13.086410
-4.646873,-7.546022,12.459751
-4.646873,-5.353764,11.829208
-4.646873,-3.161505,11.273247
-4.646873,-0.969247,10.842732
-4.646873,1.223011,10.563438
-4.646873,3.415269,10.438559
-4.646873,5.607528,10.451219
-4.646873,7.799786,10.566982
-4.646873,9.992044,10.736365
-4.646873,12.184302,10.897341
-4.646873,14.376561,10.977859
-4.646873,16.568819,10.898347
-4.646873,18.761077,10.574225
-4.646873,20.953335,9.918413
-4.646873,23.145594,8.843847
-5.808592,-18.685665,13.043492
-5.808592,-16.499358,13.848260
-5.808592,-14.313050,14.004551
-5.808592,-12.126743,13.727915
-5.808592,-9.940436,13.196154
-5.808592,-7.754129,12.551801
-5.808592,-5.567822,11.904597
-5.808592,-3.381515,11.333965
-5.808592,-1.195208,10.891487
-5.808592,0.991099,10.603384
-5.808592,3.177406,10.472985
-5.808592,5.363713,10.483211
-5.808592,7.550020,10.599046
-5.808592,9.736327,10.770017
-5.808592,11.922634,10.932667
-5.808592,14.108941,11.013034
-5.808592,16.295248,10.929126
-5.808592,18.481556,10.593398
-5.808592,20.667863,9.915226
-5.808592,22.854170,8.803389
-6.970310,-19.202772,13.021149
-6.970310,-17.008154,13.937539
-6.970310,-14.813535,14.158035
-6.970310,-12.618916,13.909653
-6.970310,-10.424298,13.380205
-6.970310,-8.229679,12.720831
-6.970310,-6.035061,12.048519
-6.970310,-3.840442,11.448627
-6.970310,-1.645823,10.977413
-6.970310,0.548795,10.664551
-6.970310,2.743414,10.515661
-6.970310,4.938033,10.514830
-6.970310,7.132651,10.627136
-6.970310,9.327270,10.801172
-6.970310,11.521888,10.971569
-6.970310,13.716507,11.061523
-6.970310,15.911126,10.985312
-6.970310,18.105744,10.650829
-6.970310,20.300363,9.962097
-6.970310,22.494981,8.821798
-8.132028,-19.961903,12.799572
-8.132028,-17.748182,13.936428
-8.132028,-15.534462,14.293560
-8.132028,-13.320742,14.117593
-8.132028,-11.107021,13.613401
-8.132028,-8.893301,12.946745
-8.132028,-6.679581,12.246904
-8.132028,-4.465860,11.609313
-8.132028,-2.252140,11.098200
-8.132028,-0.038420,10.749216
-8.132028,2.175301,10.572077
-8.132028,4.389021,10.553198
-8.132028,6.602741,10.658324
-8.132028,8.816462,10.835170
-8.132028,11.030182,11.016058
-8.132028,13.243902,11.120547
-8.132028,15.457623,11.058071
-8.132028,17.671343,10.730578
-8.132028,19.885063,10.035161
-8.132028,22.098784,8.866695
-9.293747,-20.782335,12.428027
-9.293747,-18.547348,13.843344
-9.293747,-16.312361,14.379385
-9.293747,-14.077374,14.305413
-9.293747,-11.842388,13.846029
-9.293747,-9.607401,13.183933
-9.293747,-7.372414,12.462692
-9.293747,-5.137427,11.789502
-9.293747,-2.902441,11.237953
-9.293747,-0.667454,10.850795
-9.293747,1.567533,10.642701
-9.293747,3.802520,10.603032
-9.293747,6.037507,10.698601
-9.293747,8.272493,10.876442
-9.293747,10.507480,11.066566
-9.293747,12.742467,11.184734
-9.293747,14.977454,11.135217
-9.293747,17.212440,10.813562
-9.293747,19.447427,10.109356
-9.293747,21.682414,8.908990
-10.455465,-21.466337,12.050039
-10.455465,-19.218173,13.711979
-10.455465,-16.970008,14.411508
-10.455465,-14.721843,14.436049
-10.455465,-12.473678,14.026131
-10.455465,-10.225514,13.378244
-10.455465,-7.977349,12.647678
-10.455465,-5.729184,11.951377
-10.455465,-3.481020,11.370781
-10.455465,-1.232855,10.954675
-10.455465,1.015310,10.722037
-10.455465,3.263475,10.664885
-10.455465,5.511639,10.751119
-10.455465,7.759804,10.927378
-10.455465,10.007969,11.121876
-10.455465,12.256133,11.247258
-10.455465,14.504298,11.203442
-10.455465,16.752463,10.880467
-10.455465,19.000628,10.161340
-10.455465,21.248792,8.924887
-11.617183,-21.849446,11.864737
-11.617183,-19.605426,13.638030
-11.617183,-17.361407,14.416750
-11.617183,-15.117388,14.494189
-11.617183,-12.873369,14.116273
-11.617183,-10.629349,13.484386
-11.617183,-8.385330,12.758185
-11.617183,-6.141311,12.058425
-11.617183,-3.897291,11.469779
-11.617183,-1.653272,11.043659
-11.617183,0.590747,10.801036
-11.617183,2.834767,10.735262
-11.617183,5.078786,10.814889
-11.617183,7.322805,10.986494
-11.617183,9.566825,11.177496
-11.617183,11.810844,11.298976
-11.617183,14.054863,11.248505
-11.617183,16.298883,10.912954
-11.617183,18.542902,10.171326
-11.617183,20.786921,8.897569
-12.778902,-21.834029,12.003842
-12.778902,-19.617928,13.687432
-12.778902,-17.401827,14.417094
-12.778902,-15.185727,14.474724
-12.778902,-12.969626,14.096807
-12.778902,-10.753525,13.477064
-12.778902,-8.537424,12.769104
-12.778902,-6.321323,12.089070
-12.778902,-4.105223,11.518293
-12.778902,-1.889122,11.105940
-12.778902,0.326979,10.871660
-12.778902,2.543080,10.808243
-12.778902,4.759180,10.884258
-12.778902,6.975281,11.046714
-12.778902,9.191382,11.223700
-12.778902,11.407483,11.327043
-12.778902,13.623583,11.254951
-12.778902,15.839684,10.894668
-12.778902,18.055785,10.125120
-12.778902,20.271886,8.819565
-13.940620,-21.406153,12.422848
-13.940620,-19.244521,13.829666
-13.940620,-17.082889,14.393078
-13.940620,-14.921257,14.366604
-13.940620,-12.759625,13.962716
-13.940620,-10.597993,13.355176
-13.940620,-8.436361,12.681381
-13.940620,-6.274729,12.044697
-13.940620,-4.113097,11.516803
-13.940620,-1.951465,11.140028
-13.940620,0.210167,10.929693
-13.940620,2.371798,10.876448
-13.940620,4.533430,10.948614
-13.940620,6.695062,11.094521
-13.940620,8.856694,11.244851
-13.940620,11.018326,11.314971
-13.940620,13.179958,11.207282
-13.940620,15.341590,10.813550
-13.940620,17.503222,10.017252
-13.940620,19.664854,8.695912
-15.102338,-20.635738,12.919738
-15.102338,-18.554221,13.951160
-15.102338,-16.472705,14.292827
-15.102338,-14.391188,14.158349
-15.102338,-12.309672,13.726368
-15.102338,-10.228155,13.142495
-15.102338,-8.146639,12.521250
-15.102338,-6.065122,11.947994
