-5.895445,-6.528009,-12.452100
-5.895445,-4.726064,-12.330269
-5.895445,-2.881473,-12.358465
-5.895445,-0.992813,-12.541697
-5.895445,0.935547,-12.864594
-5.895445,2.893443,-13.291399
-5.895445,4.864919,-13.765975
-5.895445,6.828223,-14.211803
-5.895445,8.755810,-14.531979
-5.895445,10.614341,-14.609220
-5.895445,12.364685,-14.305857
-5.895445,13.961915,-13.463841
-5.895445,15.355310,-11.904739
-6.808466,-19.297120,-12.913951
-6.808466,-17.286694,-13.574515
-6.808466,-15.406805,-13.775850
-6.808466,-13.614476,-13.669153
-6.808466,-11.872705,-13.384590
-6.808466,-10.150471,-13.031300
-6.808466,-8.422726,-12.697393
-6.808466,-6.670404,-12.449951
-6.808466,-4.880413,-12.335027
-6.808466,-3.045640,-12.377647
-6.808466,-1.164948,-12.581805
-6.808466,0.756819,-12.930470
-6.808466,2.708845,-13.385582
-6.808466,4.674332,-13.888051
-6.808466,6.630507,-14.357760
-6.808466,8.548619,-14.693562
-6.808466,10.393938,-14.773283
-6.808466,12.125760,-14.453720
-6.808466,13.697400,-13.570642
-6.808466,15.056199,-11.938789
-7.721486,-19.205723,-13.052224
-7.721486,-17.232983,-13.655835
-7.721486,-15.386970,-13.813624
-7.721486,-13.624834,-13.676332
-7.721486,-11.909768,-13.373450
-7.721486,-10.211004,-13.013217
-7.721486,-8.503817,-12.682618
-7.721486,-6.769521,-12.447386
-7.721486,-4.995472,-12.352004
-7.721486,-3.175068,-12.419699
-7.721486,-1.307747,-12.652449
-7.721486,0.601012,-13.030976
-7.721486,2.539688,-13.514752
-7.721486,4.490721,-14.041998
-7.721486,6.430507,-14.529679
-7.721486,8.329403,-14.873510
-7.721486,10.151725,-14.947953
-7.721486,11.855747,-14.606218
-7.721486,13.393703,-13.680263
-7.721486,14.711783,-11.980791
-8.634507,-19.004720,-13.209320
-8.634507,-17.086809,-13.724304
-8.634507,-15.287102,-13.823448
-8.634507,-13.564070,-13.652850
-8.634507,-11.882156,-13.337598
-8.634507,-10.211775,-12.981773
-8.634507,-8.529315,-12.668444
-8.634507,-6.817134,-12.459672
-8.634507,-5.063564,-12.396507
-8.634507,-3.262907,-12.498993
-8.634507,-1.415438,-12.766162
-8.634507,0.472595,-13.176036
-8.634507,2.388974,-13.685629
-8.634507,4.315507,-14.230946
-8.634507,6.228032,-14.726982
-8.634507,8.096414,-15.067722
-8.634507,9.884545,-15.126142
-8.634507,11.550347,-14.754210
-8.634507,13.045769,-13.782882
-8.634507,14.316788,-12.022107
-9.547527,-18.694946,-13.370901
-9.547527,-16.846698,-13.775394
-9.547527,-15.103970,-13.808672
-9.547527,-13.427720,-13.608081
-9.547527,-11.784672,-13.290684
-9.547527,-10.147316,-12.953265
-9.547527,-8.493904,-12.672328
-9.547527,-6.808456,-12.504096
-9.547527,-5.080754,-12.484512
-9.547527,-3.306346,-12.629239
-9.547527,-1.486544,-12.933658
-9.547527,0.371572,-13.372872
-9.547527,2.255163,-13.901702
-9.547527,4.145621,-14.454690
-9.547527,6.018573,-14.946095
-9.547527,7.843884,-15.269898
-9.547527,9.585653,-15.299801
-9.547527,11.202213,-14.889221
-9.547527,12.646134,-13.871299
-9.547527,13.864221,-12.058895
-10.460547,-18.282213,-13.521137
-10.460547,-16.515115,-13.806477
-10.460547,-14.837688,-13.776357
-10.460547,-13.214426,-13.555685
-10.460547,-11.615246,-13.250291
-10.460547,-10.015489,-12.946927
-10.460547,-8.395918,-12.713270
-10.460547,-6.742717,-12.597921
-10.460547,-5.047495,-12.630402
-10.460547,-3.307282,-12.821161
-10.460547,-1.524532,-13.161568
-10.460547,0.292882,-13.623916
-10.460547,2.131659,-14.161423
-10.460547,3.973079,-14.708228
-10.460547,5.792999,-15.179396
-10.460547,7.561853,-15.470914
-10.460547,9.244652,-15.459692
-10.460547,10.800986,-15.003564
-10.460547,12.185019,-13.941288
-10.460547,13.345496,-12.092544
-11.373568,-17.776075,-13.647072
-11.373568,-16.097765,-13.819278
-11.373568,-14.491468,-13.738145
-11.373568,-12.926048,-13.513206
-11.373568,-11.375327,-13.236555
-11.373568,-9.818087,-12.982840
-11.373568,-8.238066,-12.809269
-11.373568,-6.623960,-12.755606
-11.373568,-4.969424,-12.844174
-11.373568,-3.273072,-13.079853
-11.373568,-1.538474,-13.450079
-11.373568,0.225840,-13.924848
-11.373568,2.006384,-14.456711
-11.373568,3.784712,-14.980779
-11.373568,5.537420,-15.414717
-11.373568,7.236147,-15.658751
-11.373568,8.847574,-15.595664
-11.373568,10.333423,-15.090793
-11.373568,11.650457,-13.992038
-11.373568,12.750484,-12.129851
-12.286588,-17.188576,-13.743010
-12.286588,-15.603068,-13.821728
-12.286588,-14.071653,-13.710143
-12.286588,-12.568112,-13.500503
-12.286588,-11.070614,-13.269600
-12.286588,-9.561724,-13.078775
-12.286588,-8.028400,-12.973910
-12.286588,-6.461991,-12.985435
-12.286588,-4.858242,-13.128324
-12.286588,-3.217288,-13.402096
-12.286588,-1.543661,-13.790817
-12.286588,0.153719,-14.263096
-12.286588,1.861534,-14.772088
-12.286588,3.562077,-15.255494
-12.286588,5.233244,-15.635559
-12.286588,6.848542,-15.819075
-12.286588,8.377082,-15.697377
-12.286588,9.783582,-15.146346
-12.286588,11.028369,-14.026410
-12.286588,12.067375,-12.182539
-13.199608,-16.533533,-13.813047
-13.199608,-15.042189,-13.827845
-13.199608,-13.588289,-13.710917
-13.199608,-12.150732,-13.536495
-13.199608,-10.712174,-13.365592
-13.199608,-9.259030,-13.246006
-13.199608,-7.781470,-13.212312
-13.199608,-6.273424,-13.285870
-13.199608,-4.732577,-13.474820
-13.199608,-3.160373,-13.774084
-13.199608,-1.562013,-14.165365
-13.199608,0.053545,-14.617148
-13.199608,1.673585,-15.084700
-13.199608,3.281635,-15.510068
-13.199608,4.857464,-15.822083
-13.199608,6.377083,-15.936356
-13.199608,7.812748,-15.755278
-13.199608,9.132957,-15.168025
-13.199608,10.302448,-14.050551
-13.199608,11.282206,-12.265595
-14.112629,-15.826833,-13.870017
-14.112629,-14.429935,-13.854598
-14.112629,-13.056381,-13.757058
-14.112629,-11.690051,-13.634103
-14.112629,-10.317912,-13.531585
-14.112629,-8.930018,-13.484491
-14.112629,-7.519511,-13.516952
-14.112629,-6.082617,-13.642240
-14.112629,-4.618651,-13.862766
-14.112629,-3.130015,-14.170083
-14.112629,-1.622196,-14.544884
-14.112629,-0.103770,-14.957002
-14.112629,1.413603,-15.365413
-14.112629,2.915173,-15.718231
-14.112629,4.383105,-15.952712
-14.112629,5.796478,-15.995253
-14.112629,7.131283,-15.761391
-14.112629,8.360423,-15.155805
-14.112629,9.453717,-14.072313
-14.112629,10.377895,-12.393874
-15.025649,-15.088007,-13.929973
-15.025649,-13.786588,-13.915450
-15.025649,-12.497801,-13.856489
-15.025649,-11.210054,-13.793871
-15.025649,-9.914173,-13.759865
-15.025649,-8.603406,-13.778229
-15.025649,-7.273420,-13.864206
-15.025649,-5.922302,-14.024525
-15.025649,-4.550558,-14.257405
-15.025649,-3.161116,-14.552549
-15.025649,-1.759321,-14.891149
-15.025649,-0.352940,-15.245882
-15.025649,1.047841,-15.580913
-15.025649,2.430415,-15.851894
-15.025649,3.779757,-16.005965
-15.025649,5.078421,-15.981750
-15.025649,6.306540,-15.709363
-15.025649,7.441831,-15.110402
-15.025649,8.459586,-14.097955
-15.025649,9.332681,-12.576595
-15.938670,-14.342952,-14.002589
-15.938670,-13.140447,-14.011406
-15.938670,-11.943521,-14.000594
-15.938670,-10.744413,-13.997463
-15.938670,-9.537152,-14.023010
-15.938670,-8.317565,-14.091920
-15.938670,-7.083272,-14.212567
-15.938670,-5.833687,-14.387010
-15.938670,-4.570019,-14.610998
-15.938670,-3.295270,-14.873966
-15.938670,-2.014239,-15.159037
-15.938670,-0.733517,-15.443022
-15.938670,0.538511,-15.696418
-15.938670,1.791663,-15.883411
-15.938670,3.013966,-15.961875
-15.938670,4.191650,-15.883371
-15.938670,5.309151,-15.593146
-15.938670,6.349112,-15.030136
-15.938670,7.292382,-14.126965
-15.938670,8.118013,-12.809943
-16.851690,-13.627255,-14.079486
-16.851690,-12.530517,-14.121567
-16.851690,-11.435650,-14.157065
-16.851690,-10.337883,-14.202767
-16.851690,-9.233687,-14.271085
-16.851690,-8.120776,-14.370059
-16.851690,-6.998110,-14.503356
-16.851690,-5.865888,-14.670268
-16.851690,-4.725555,-14.865718
-16.851690,-3.579797,-15.080251
-16.851690,-2.432544,-15.300042
-16.851690,-1.288969,-15.506893
-16.851690,-0.155489,-15.678232
-16.851690,0.960237,-15.787114
-16.851690,2.049308,-15.802221
-16.851690,3.101577,-15.687862
-16.851690,4.105657,-15.403973
-16.851690,5.048917,-14.906117
-16.851690,5.917480,-14.145484
-16.851690,6.696231,-13.068891
-17.764710,-12.989196,-14.123649
-17.764710,-12.008553,-14.195929
-17.764710,-11.028618,-14.265719
-17.764710,-10.046750,-14.342312
-17.764710,-9.061096,-14.432221
-17.764710,-8.070595,-14.539180
-17.764710,-7.074977,-14.664142
-17.764710,-6.074762,-14.805280
-17.764710,-5.071257,-14.957986
-17.764710,-4.066565,-15.114873
-17.764710,-3.063574,-15.265773
-17.764710,-2.065965,-15.397738
-17.764710,-1.078210,-15.495042
-17.764710,-0.105568,-15.539174
-17.764710,0.845909,-15.508848
-17.764710,1.769379,-15.379995
-17.764710,2.657210,-15.125766
-17.764710,3.500981,-14.716533
-17.764710,4.291479,-14.119886
-17.764710,5.018702,-13.300637
0.000000,-11.740221,12.818513
0.000000,-10.195544,12.807318
0.000000,-8.650868,12.519852
0.000000,-7.106191,12.067587
0.000000,-5.561514,11.541251
0.000000,-4.016838,11.012258
0.000000,-2.472161,10.534130
0.000000,-0.927485,10.143920
0.000000,0.617192,9.863641
0.000000,2.161869,9.701688
0.000000,3.706545,9.654260
0.000000,5.251222,9.706793
0.000000,6.795898,9.835374
0.000000,8.340575,10.008175
0.000000,9.885252,10.186871
0.000000,11.429928,10.328069
0.000000,12.974605,10.384729
0.000000,14.519281,10.307594
0.000000,16.063958,10.046608
0.000000,17.608634,9.552345
-0.956949,-13.940623,12.103871
-0.956949,-12.256875,12.766063
-0.956949,-10.573126,12.879865
-0.956949,-8.889377,12.627890
-0.956949,-7.205628,12.160700
-0.956949,-5.521879,11.599000
-0.956949,-3.838131,11.035829
-0.956949,-2.154382,10.538754
-0.956949,-0.470633,10.152061
-0.956949,1.213116,9.898949
-0.956949,2.896865,9.783719
-0.956949,4.580613,9.793971
-0.956949,6.264362,9.902792
-0.956949,7.948111,10.070952
-0.956949,9.631860,10.249093
-0.956949,11.315609,10.379923
-0.956949,12.999357,10.400412
-0.956949,14.683106,10.243975
-0.956949,16.366855,9.842675
-0.956949,18.050604,9.129409
-1.913898,-14.547922,11.799781
-1.913898,-12.822521,12.709129
-1.913898,-11.097119,12.972192
-1.913898,-9.371718,12.797894
-1.913898,-7.646316,12.358777
-1.913898,-5.920915,11.793470
-1.913898,-4.195513,11.209172
-1.913898,-2.470112,10.684129
-1.913898,-0.744710,10.270106
-1.913898,0.980691,9.994870
-1.913898,2.706093,9.864667
-1.913898,4.431494,9.866695
-1.913898,6.156896,9.971584
-1.913898,7.882297,10.135875
-1.913898,9.607699,10.304494
-1.913898,11.333100,10.413231
-1.913898,13.058502,10.391218
-1.913898,14.783903,10.163403
-1.913898,16.509305,9.653032
-1.913898,18.234706,8.784122
-2.870847,-14.533640,11.992666
-2.870847,-12.809318,12.856359
-2.870847,-11.084995,13.082033
-2.870847,-9.360673,12.878440
-2.870847,-7.636351,12.417759
-2.870847,-5.912028,11.838072
-2.870847,-4.187706,11.245826
-2.870847,-2.463384,10.718310
-2.870847,-0.739061,10.306116
-2.870847,0.985261,10.035616
-2.870847,2.709583,9.911430
-2.870847,4.433906,9.918892
-2.870847,6.158228,10.026523
-2.870847,7.882550,10.188499
-2.870847,9.606873,10.347121
-2.870847,11.331195,10.435286
-2.870847,13.055517,10.378952
-2.870847,14.779840,10.099615
-2.870847,16.504162,9.516770
-2.870847,18.228484,8.550387
-3.827797,-14.463722,12.269120
-3.827797,-12.750442,13.044038
-3.827797,-11.037162,13.205462
-3.827797,-9.323882,12.957243
-3.827797,-7.610601,12.467366
-3.827797,-5.897321,11.870350
-3.827797,-4.184041,11.269635
-3.827797,-2.470760,10.739973
-3.827797,-0.757480,10.329824
-3.827797,0.955800,10.063742
-3.827797,2.669081,9.944770
-3.827797,4.382361,9.956831
-3.827797,6.095641,10.067118
-3.827797,7.808921,10.228488
-3.827797,9.522202,10.381850
-3.827797,11.235482,10.458559
-3.827797,12.948762,10.382808
-3.827797,14.662043,10.074018
-3.827797,16.375323,9.449229
-3.827797,18.088603,8.425494
-4.784746,-14.603107,12.426478
-4.784746,-12.894477,13.193177
-4.784746,-11.185848,13.342075
-4.784746,-9.477219,13.078525
-4.784746,-7.768589,12.571919
-4.784746,-6.059960,11.958047
-4.784746,-4.351330,11.341458
-4.784746,-2.642701,10.797819
-4.784746,-0.934072,10.376273
-4.784746,0.774558,10.101798
-4.784746,2.483187,9.977567
-4.784746,4.191816,9.987309
-4.784746,5.900446,10.097665
-4.784746,7.609075,10.260549
-4.784746,9.317704,10.415505
-4.784746,11.026334,10.492070
-4.784746,12.734963,10.412131
-4.784746,14.443593,10.092284
-4.784746,16.152222,9.446193
-4.784746,17.860851,8.386951
-5.741695,-15.007233,12.405192
-5.741695,-13.292108,13.278232
-5.741695,-11.576983,13.488299
-5.741695,-9.861859,13.251666
-5.741695,-8.146734,12.747263
-5.741695,-6.431609,12.119081
-5.741695,-4.716484,11.478571
-5.741695,-3.001359,10.907057
-5.741695,-1.286234,10.458133
-5.741695,0.428891,10.160071
-5.741695,2.144016,10.018224
-5.741695,3.859141,10.017433
-5.741695,5.574266,10.124426
-5.741695,7.289391,10.290230
-5.741695,9.004516,10.452567
-5.741695,10.719641,10.538265
-5.741695,12.434766,10.465659
-5.741695,14.149891,10.146998
-5.741695,15.865016,9.490846
-5.741695,17.580141,8.404489
-6.698644,-15.600505,12.194096
-6.698644,-13.870451,13.277175
-6.698644,-12.140398,13.617413
-6.698644,-10.410345,13.449769
-6.698644,-8.680292,12.969428
-6.698644,-6.950238,12.334308
-6.698644,-5.220185,11.667572
-6.698644,-3.490132,11.060142
-6.698644,-1.760079,10.573206
-6.698644,-0.030026,10.240731
-6.698644,1.700028,10.071972
-6.698644,3.430081,10.053986
-6.698644,5.160134,10.154138
-6.698644,6.890187,10.322620
-6.698644,8.620241,10.494951
-6.698644,10.350294,10.594496
-6.698644,12.080347,10.534976
-6.698644,13.810400,10.222975
-6.698644,15.540453,9.560454
-6.698644,17.270507,8.447262
-7.655593,-16.241683,11.840127
-7.655593,-14.495010,13.188494
-7.655593,-12.748337,13.699178
-7.655593,-11.001664,13.628705
-7.655593,-9.254991,13.191052
-7.655593,-7.508317,12.560276
-7.655593,-5.761644,11.873153
-7.655593,-4.014971,11.231808
-7.655593,-2.268298,10.706349
-7.655593,-0.521624,10.337505
-7.655593,1.225049,10.139255
-7.655593,2.971722,10.101462
-7.655593,4.718395,10.192511
-7.655593,6.465069,10.361939
-7.655593,8.211742,10.543070
-7.655593,9.958415,10.655648
-7.655593,11.705088,10.608473
-7.655593,13.451761,10.302034
-7.655593,15.198435,9.631139
-7.655593,16.945108,8.487556
-8.612542,-16.776241,11.480020
-8.612542,-15.019269,13.063343
-8.612542,-13.262297,13.729781
-8.612542,-11.505325,13.753161
-8.612542,-9.748353,13.362634
-8.612542,-7.991381,12.745395
-8.612542,-6.234409,12.049388
-8.612542,-4.477437,11.386025
-8.612542,-2.720465,10.832893
-8.612542,-0.963493,10.436471
-8.612542,0.793479,10.214838
-8.612542,2.550451,10.160389
-8.612542,4.307423,10.242545
-8.612542,6.064395,10.410465
-8.612542,7.821367,10.595763
-8.612542,9.578339,10.715214
-8.612542,11.335311,10.673470
-8.612542,13.092283,10.365773
-8.612542,14.849255,9.680665
-8.612542,16.606226,8.502701
-9.569491,-17.075646,11.303483
-9.569491,-15.321913,12.992892
-9.569491,-13.568181,13.734775
-9.569491,-11.814449,13.808551
-9.569491,-10.060716,13.448512
-9.569491,-8.306984,12.846516
-9.569491,-6.553252,12.154667
-9.569491,-4.799520,11.488009
-9.569491,-3.045787,10.927209
-9.569491,-1.292055,10.521246
-9.569491,0.461677,10.290100
-9.569491,2.215410,10.227437
-9.569491,3.969142,10.303298
-9.569491,5.722874,10.466785
-9.569491,7.476606,10.648752
-9.569491,9.230339,10.764486
-9.569491,10.984071,10.716401
-9.569491,12.737803,10.396724
-9.569491,14.491535,9.690178
-9.569491,16.245268,8.476675
-10.526440,-17.063597,11.436008
-10.526440,-15.331683,13.039957
-10.526440,-13.599770,13.735102
-10.526440,-11.867856,13.790006
-10.526440,-10.135943,13.429966
-10.526440,-8.404029,12.839540
-10.526440,-6.672116,12.165070
-10.526440,-4.940202,11.517205
-10.526440,-3.208289,10.973428
-10.526440,-1.476375,10.580580
-10.526440,0.255538,10.357384
-10.526440,1.987452,10.296966
-10.526440,3.719366,10.369386
-10.526440,5.451279,10.524156
-10.526440,7.183193,10.692770
-10.526440,8.915106,10.791225
-10.526440,10.647020,10.722543
-10.526440,12.378933,10.379303
-10.526440,14.110847,9.646157
-10.526440,15.842760,8.402362
-11.483390,-16.729206,11.835193
-11.483390,-15.039860,13.175462
-11.483390,-13.350515,13.712223
-11.483390,-11.661170,13.687002
-11.483390,-9.971824,13.302219
-11.483390,-8.282479,12.723418
-11.483390,-6.593134,12.081496
-11.483390,-4.903788,11.474930
-11.483390,-3.214443,10.972008
-11.483390,-1.525097,10.613057
-11.483390,0.164248,10.412671
-11.483390,1.853593,10.361945
-11.483390,3.542939,10.430697
-11.483390,5.232284,10.569702
-11.483390,6.921630,10.712920
-11.483390,8.610975,10.779724
-11.483390,10.300320,10.677129
-11.483390,11.989666,10.302022
-11.483390,13.679011,9.543393
-11.483390,15.368357,8.284558
-12.440339,-16.127116,12.308578
-12.440339,-14.500382,13.291210
-12.440339,-12.873648,13.616715
-12.440339,-11.246914,13.488598
-12.440339,-9.620180,13.077051
-12.440339,-7.993446,12.520798
-12.440339,-6.366711,11.928940
-12.440339,-4.739977,11.382802
-12.440339,-3.113243,10.937776
-12.440339,-1.486509,10.625168
-12.440339,0.140225,10.454046
-12.440339,1.766959,10.413079
-12.440339,3.393693,10.472390
-12.440339,5.020427,10.585396
-12.440339,6.647161,10.690655
-12.440339,8.273895,10.713712
-12.440339,9.900629,10.568946
-12.440339,11.527363,10.161412
-12.440339,13.154098,9.388688
-12.440339,14.780832,8.142723
-13.397288,-15.364572,12.644481
-13.397288,-13.817590,13.281492
-13.397288,-12.270608,13.414156
-13.397288,-10.723626,13.204482
-13.397288,-9.176644,12.787602
-13.397288,-7.629662,12.273208
-13.397288,-6.082680,11.746988
-13.397288,-4.535699,11.272061
-13.397288,-2.988717,10.890410
-13.397288,-1.441735,10.624322
-13.397288,0.105247,10.477819
-13.397288,1.652229,10.438094
-13.397288,3.199211,10.476951
-13.397288,4.746193,10.552232
-13.397288,6.293175,10.609261
-13.397288,7.840157,10.582272
-13.397288,9.387138,10.395850
-13.397288,10.934120,9.966362
-13.397288,12.481102,9.203397
-13.397288,14.028084,8.011196
-14.354237,-14.575431,12.734000
-14.354237,-13.121612,13.111451
-14.354237,-11.667792,13.116146
-14.354237,-10.213973,12.871582
-14.354237,-8.760154,12.480583
-14.354237,-7.306334,12.026350
-14.354237,-5.852515,11.573514
-14.354237,-4.398696,11.169189
-14.354237,-2.944876,10.844020
-14.354237,-1.491057,10.613242
-14.354237,-0.037238,10.477725
-14.354237,1.416582,10.425032
-14.354237,2.870401,10.430468
-14.354237,4.324220,10.458132
-14.354237,5.778040,10.461970
-14.354237,7.231859,10.386828
-14.354237,8.685678,10.169503
-14.354237,10.139498,9.739795
-14.354237,11.593317,9.021561
-14.354237,13.047137,7.933763
-15.311186,-13.881120,12.588806
-15.311186,-12.531370,12.813509
-15.311186,-11.181620,12.764271
-15.311186,-9.831870,12.532366
-15.311186,-8.482119,12.193864
-15.311186,-7.132369,11.810348
-15.311186,-5.782619,11.429646
-15.311186,-4.432869,11.086552
-15.311186,-3.083118,10.803557
-15.311186,-1.733368,10.591569
-15.311186,-0.383618,10.450644
-15.311186,0.966132,10.370707
-15.311186,2.315882,10.332283
-15.311186,3.665633,10.307217
-15.311186,5.015383,10.259405
-15.311186,6.365133,10.145516
-15.311186,7.714883,9.915719
-15.311186,9.064634,9.514411
-15.311186,10.414384,8.880937
-15.311186,11.764134,7.950324
-16.268135,-13.338535,12.278285
-16.268135,-12.105225,12.435897
-16.268135,-10.871916,12.389449
-16.268135,-9.638606,12.204228
-16.268135,-8.405297,11.934959
-16.268135,-7.171987,11.626266
-16.268135,-5.938678,11.313137
-16.268135,-4.705368,11.021383
-16.268135,-3.472059,10.768102
-16.268135,-2.238749,10.562144
-16.268135,-1.005440,10.404567
-16.268135,0.227869,10.289104
-16.268135,1.461179,10.202625
-16.268135,2.694488,10.125598
-16.268135,3.927798,10.032549
-16.268135,5.161107,9.892530
-16.268135,6.394417,9.669576
-16.268135,7.627726,9.323171
-16.268135,8.861036,8.808707
-16.268135,10.094345,8.077948
-17.225084,-12.874885,11.875630
-17.225084,-11.779251,12.007597
-17.225084,-10.683617,11.990220
-17.225084,-9.587983,11.866834
-17.225084,-8.492349,11.674191
-17.225084,-7.396715,11.442719
-17.225084,-6.301080,11.196773
-17.225084,-5.205446,10.954894
-17.225084,-4.109812,10.730065
-17.225084,-3.014178,10.529964
-17.225084,-1.918544,10.357223
-17.225084,-0.822910,10.209682
-17.225084,0.272724,10.080643
-17.225084,1.368358,9.959130
-17.225084,2.463992,9.830143
-17.225084,3.559626,9.674911
-17.225084,4.655261,9.471152
-17.225084,5.750895,9.193326
-17.225084,6.846529,8.812892
-17.225084,7.942163,8.298564
-18.182033,-12.209485,11.458991
-18.182033,-11.293138,11.552150
-18.182033,-10.376792,11.551202
-18.182033,-9.460445,11.479534
-18.182033,-8.544098,11.357324
-18.182033,-7.627752,11.201646
-18.182033,-6.711405,11.026574
-18.182033,-5.795058,10.843288
-18.182033,-4.878712,10.660175
-18.182033,-3.962365,10.482941
-18.182033,-3.046018,10.314707
-18.182033,-2.129672,10.156119
-18.182033,-1.213325,10.005453
-18.182033,-0.296978,9.858716
-18.182033,0.619368,9.709753
-18.182033,1.535715,9.550353
-18.182033,2.452062,9.370351
-18.182033,3.368408,9.157734
-18.182033,4.284755,8.898745
-18.182033,5.201102,8.577988
18.019926,0.000000,-6.393963
17.452822,0.000000,-4.822668
17.012316,0.000000,-3.251373
16.736681,0.000000,-1.680078
16.646759,0.000000,-0.108783
16.745963,0.000000,1.462512
17.020274,0.000000,3.033807
17.438243,0.000000,4.605102
17.950991,0.000000,6.176397
18.492208,0.000000,7.747692
18.978154,0.000000,9.318987
19.761265,0.924037,-14.250437
19.801530,0.924037,-12.679142
19.533228,0.924037,-11.107847
19.077443,0.924037,-9.536552
18.537829,0.924037,-7.965258
18.000612,0.924037,-6.393963
17.534583,0.924037,-4.822668
17.191108,0.924037,-3.251373
17.004118,0.924037,-1.680078
16.990116,0.924037,-0.108783
17.148173,0.924037,1.462512
17.459933,0.924037,3.033807
17.889605,0.924037,4.605102
18.383971,0.924037,6.176397
18.872381,0.924037,7.747692
19.266755,0.924037,9.318987
19.247138,1.848075,-14.250437
19.319865,1.848075,-12.679142
19.102633,1.848075,-11.107847
18.712185,1.848075,-9.536552
18.247838,1.848075,-7.965258
17.791474,1.848075,-6.393963
17.407548,1.848075,-4.822668
17.143083,1.848075,-3.251373
17.027672,1.848075,-1.680078
17.073477,1.848075,-0.108783
17.275231,1.848075,1.462512
17.610234,1.848075,3.033807
18.038359,1.848075,4.605102
18.502047,1.848075,6.176397
18.926306,1.848075,7.747692
19.218719,1.848075,9.318987
18.698777,2.772112,-14.250437
18.783199,2.772112,-12.679142
18.597224,2.772112,-11.107847
18.253256,2.772112,-9.536552
17.846270,2.772112,-7.965258
17.453809,2.772112,-6.393963
17.135988,2.772112,-4.822668
16.935491,2.772112,-3.251373
16.877569,2.772112,-1.680078
16.970046,2.772112,-0.108783
17.203314,2.772112,1.462512
17.550334,2.772112,3.033807
17.966637,2.772112,4.605102
18.390326,2.772112,6.176397
18.742069,2.772112,7.747692
18.925108,2.772112,9.318987
18.149327,3.696150,-14.250437
18.227655,3.696150,-12.679142
18.056102,3.696150,-11.107847
17.742731,3.696150,-9.536552
17.378178,3.696150,-7.965258
17.035646,3.696150,-6.393963
16.770911,3.696150,-4.822668
16.622314,3.696150,-3.251373
16.610769,3.696150,-1.680078
16.739759,3.696150,-0.108783
16.995335,3.696150,1.462512
17.346121,3.696150,3.033807
17.743306,3.696150,4.605102
18.120652,3.696150,6.176397
18.394489,3.696150,7.747692
17.676092,4.620187,-12.679142
17.505101,4.620187,-11.107847
17.209422,4.620187,-9.536552
16.875351,4.620187,-7.965258
16.571751,4.620187,-6.393963
16.350056,4.620187,-4.822668
16.244270,4.620187,-3.251373
16.270966,4.620187,-1.680078
16.429287,4.620187,-0.108783
16.700944,4.620187,1.462512
17.050220,4.620187,3.033807
17.423966,4.620187,4.605102
17.751603,4.620187,6.176397
17.945122,4.620187,7.747692
17.113424,5.544224,-14.250437
17.138102,5.544224,-12.679142
16.956791,5.544224,-11.107847
16.668876,5.544224,-9.536552
16.356311,5.544224,-7.965258
16.083622,5.544224,-6.393963
15.897901,5.544224,-4.822668
15.828813,5.544224,-3.251373
15.888591,5.544224,-1.680078
16.072037,5.544224,-0.108783
16.356523,5.544224,1.462512
16.701992,5.544224,3.033807
17.050955,5.544224,4.605102
17.328493,5.544224,6.176397
17.442256,5.544224,7.747692
16.610014,6.468262,-12.679142
16.410477,6.468262,-11.107847
16.123374,6.468262,-9.536552
15.826318,6.468262,-7.965258
15.579495,6.468262,-6.393963
15.425658,6.468262,-4.822668
15.390131,6.468262,-3.251373
15.480808,6.468262,-1.680078
15.688150,6.468262,-0.108783
15.985190,6.468262,1.462512
16.327531,6.468262,3.033807
16.653343,6.468262,4.605102
16.883369,6.468262,6.176397
16.920917,6.468262,7.747692
16.651870,6.468262,9.318987
16.074890,7.392299,-12.679142
15.852199,7.392299,-11.107847
15.561931,7.392299,-9.536552
15.277363,7.392299,-7.965258
15.054339,7.392299,-6.393963
14.931272,7.392299,-4.822668
14.929147,7.392299,-3.251373
15.051516,7.392299,-1.680078
15.284502,7.392299,-0.108783
15.596799,7.392299,1.462512
15.939667,7.392299,3.033807
16.246938,7.392299,4.605102
16.435014,7.392299,6.176397
16.402865,7.392299,7.747692
16.032032,7.392299,9.318987
15.502528,8.316336,-12.679142
15.254729,8.316336,-11.107847
14.960300,8.316336,-9.536552
14.688174,8.316336,-7.965258
14.489858,8.316336,-6.393963
14.399424,8.316336,-4.822668
14.433517,8.316336,-3.251373
14.591350,8.316336,-1.680078
14.854705,8.316336,-0.108783
15.187935,8.316336,1.462512
15.537963,8.316336,3.033807
15.834279,8.316336,4.605102
15.988945,8.316336,6.176397
15.896593,8.316336,7.747692
15.434421,8.316336,9.318987
14.849461,9.240374,-12.679142
14.577579,9.240374,-11.107847
14.280965,9.240374,-9.536552
14.024214,9.240374,-7.965258
13.854491,9.240374,-6.393963
13.801530,9.240374,-4.822668
13.877635,9.240374,-3.251373
14.077678,9.240374,-1.680078
14.379103,9.240374,-0.108783
14.741923,9.240374,1.462512
15.108719,9.240374,3.033807
15.404643,9.240374,4.605102
15.537416,9.240374,6.176397
15.397330,9.240374,7.747692
14.857245,9.240374,9.318987
14.058955,10.164411,-12.679142
13.766991,10.164411,-11.107847
13.473147,10.164411,-9.536552
13.237680,10.164411,-7.965258
13.103413,10.164411,-6.393963
13.095741,10.164411,-4.822668
13.222628,10.164411,-3.251373
13.474606,10.164411,-1.680078
13.824779,10.164411,-0.108783
14.228819,10.164411,1.462512
14.624969,10.164411,3.033807
14.934040,10.164411,4.605102
15.059414,10.164411,6.176397
14.887041,10.164411,7.747692
14.285443,10.164411,9.318987
13.061013,11.088449,-12.679142
12.755944,11.088449,-11.107847
12.472803,11.088449,-9.536552
12.267504,11.088449,-7.965258
12.178532,11.088449,-6.393963
12.226942,11.088449,-4.822668
12.416357,11.088449,-3.251373
12.732971,11.088449,-1.680078
13.145546,11.088449,-0.108783
13.605416,11.088449,1.462512
14.046482,11.088449,3.033807
14.385216,11.088449,4.605102
14.520660,11.088449,6.176397
14.334425,11.088449,7.747692
13.690691,11.088449,9.318987
11.772372,12.012486,-12.679142
11.464153,12.012486,-11.107847
11.202621,12.012486,-9.536552
11.039353,12.012486,-7.965258
11.008493,12.012486,-6.393963
11.126754,12.012486,-4.822668
11.393421,12.012486,-3.251373
11.790348,12.012486,-1.680078
12.281956,12.012486,-0.108783
12.815240,12.012486,1.462512
13.319761,12.012486,3.033807
13.707652,12.012486,4.605102
13.873612,12.012486,6.176397
13.694915,12.012486,7.747692
10.096503,12.936523,-12.679142
9.798065,12.936523,-11.107847
9.572029,12.936523,-9.536552
9.465629,12.936523,-7.965258
9.508672,12.936523,-6.393963
9.713532,12.936523,-4.822668
10.075151,12.936523,-3.251373
10.571044,12.936523,-1.680078
11.161294,12.936523,-0.108783
11.788554,12.936523,1.462512
12.378046,12.936523,3.033807
12.837561,12.936523,4.605102
13.057462,12.936523,6.176397
12.910679,12.936523,7.747692
12.252714,12.936523,9.318987
7.923614,13.860561,-12.679142
7.650864,13.860561,-11.107847
7.477184,13.860561,-9.536552
7.445469,13.860561,-7.965258
7.581185,13.860561,-6.393963
7.892365,13.860561,-4.822668
8.369613,13.860561,-3.251373
8.986104,13.860561,-1.680078
9.697580,13.860561,-0.108783
10.442354,13.860561,1.462512
11.141309,13.860561,3.033807
11.697896,13.860561,4.605102
11.998136,13.860561,6.176397
11.910622,13.860561,7.747692
11.286514,13.860561,9.318987
5.130647,14.784598,-12.679142
4.902469,14.784598,-11.107847
4.800983,14.784598,-9.536552
4.864745,14.784598,-7.965258
5.114879,14.784598,-6.393963
5.555079,14.784598,-4.822668
6.171610,14.784598,-3.251373
6.933306,14.784598,-1.680078
7.791569,14.784598,-0.108783
8.680372,14.784598,1.462512
9.516258,14.784598,3.033807
10.198339,14.784598,4.605102
10.608297,14.784598,6.176397
10.610382,14.784598,7.747692
10.051415,14.784598,9.318987
1.581276,15.708635,-12.679142
1.419532,15.708635,-11.107847
1.413055,15.708635,-9.536552
1.596062,15.708635,-7.965258
1.985336,15.708635,-6.393963
2.580234,15.708635,-4.822668
3.362678,15.708635,-3.251373
4.297162,15.708635,-1.680078
5.330750,15.708635,-0.108783
6.393074,15.708635,1.462512
7.396338,15.708635,3.033807
8.235312,15.708635,4.605102
8.787339,15.708635,6.176397
8.912330,15.708635,7.747692
8.452766,15.708635,9.318987
0.948921,16.632673,-1.680078
2.189348,16.632673,-0.108783
3.457662,16.632673,1.462512
4.661725,16.632673,3.033807
5.691969,16.632673,4.605102
6.421396,16.632673,6.176397
6.705577,16.632673,7.747692
6.382653,16.632673,9.318987
1.179333,17.556710,3.033807
2.438199,17.556710,4.605102
3.383332,17.556710,6.176397
3.865964,17.556710,7.747692
8.826559,-14.744114,-12.679142
11.948644,-14.744114,-11.107847
13.704283,-14.744114,-9.536552
14.569186,-14.744114,-7.965258
14.901307,-14.744114,-6.393963
14.956331,-14.744114,-4.822668
14.903167,-14.744114,-3.251373
14.839428,-14.744114,-1.680078
14.806925,-14.744114,-0.108783
14.807152,-14.744114,1.462512
14.816776,-14.744114,3.033807
14.803122,-14.744114,4.605102
14.739663,-14.744114,6.176397
14.621508,-14.744114,7.747692
14.480887,-14.744114,9.318987
14.402644,-14.744114,10.890281
14.539719,-14.744114,12.461576
11.111502,-13.924996,-12.679142
13.884401,-13.924996,-11.107847
15.371647,-13.924996,-9.536552
16.034622,-13.924996,-7.965258
16.218469,-13.924996,-6.393963
16.167577,-13.924996,-4.822668
16.041072,-13.924996,-3.251373
15.928301,-13.924996,-1.680078
15.864326,-13.924996,-0.108783
15.845407,-13.924996,1.462512
15.844490,-13.924996,3.033807
15.826696,-13.924996,4.605102
15.764813,-13.924996,6.176397
15.654774,-13.924996,7.747692
15.531155,-13.924996,9.318987
15.482656,-13.924996,10.890281
15.667594,-13.924996,12.461576
13.030886,-13.105879,-12.679142
15.481847,-13.105879,-11.107847
16.723937,-13.105879,-9.536552
17.204590,-13.105879,-7.965258
17.256516,-13.105879,-6.393963
17.113188,-13.105879,-4.822668
16.924330,-13.105879,-3.251373
16.771406,-13.105879,-1.680078
16.683106,-13.105879,-0.108783
16.650837,-13.105879,1.462512
16.644206,-13.105879,3.033807
16.626513,-13.105879,4.605102
16.570234,-13.105879,6.176397
16.472514,-13.105879,7.747692
16.370651,-13.105879,9.318987
16.357585,-13.105879,10.890281
14.625180,-12.286761,-12.679142
16.780645,-12.286761,-11.107847
17.800088,-12.286761,-9.536552
18.117378,-12.286761,-7.965258
18.053173,-12.286761,-6.393963
17.830409,-12.286761,-4.822668
17.589791,-12.286761,-3.251373
17.405277,-12.286761,-1.680078
17.299569,-12.286761,-0.108783
17.259600,-12.286761,1.462512
17.252018,-12.286761,3.033807
17.238680,-12.286761,4.605102
17.192137,-12.286761,6.176397
17.111120,-12.286761,7.747692
17.036033,-12.286761,9.318987
17.064435,-12.286761,10.890281
15.933440,-11.467644,-12.679142
17.818931,-11.467644,-11.107847
18.637405,-11.467644,-9.536552
18.809540,-11.467644,-7.965258
18.644325,-11.467644,-6.393963
18.354540,-11.467644,-4.822668
18.072252,-11.467644,-3.251373
17.864293,-11.467644,-1.680078
17.747756,-11.467644,-0.108783
17.705481,-11.467644,1.462512
17.701538,-11.467644,3.033807
17.696723,-11.467644,4.605102
17.664040,-11.467644,6.176397
17.604189,-11.467644,7.747692
17.561057,-11.467644,9.318987
17.637205,-11.467644,10.890281
16.992998,-10.648527,-12.679142
18.633017,-10.648527,-11.107847
19.271256,-10.648527,-9.536552
19.315589,-10.648527,-7.965258
19.063711,-10.648527,-6.393963
18.718631,-10.648527,-4.822668
18.404153,-10.648527,-3.251373
18.180367,-10.648527,-1.680078
18.059137,-10.648527,-0.108783
18.019590,-10.648527,1.462512
18.023600,-10.648527,3.033807
18.031280,-10.648527,4.605102
18.016468,-10.648527,6.176397
17.982215,-10.648527,7.747692
17.976272,-10.648527,9.318987
18.106580,-10.648527,10.890281
17.839159,-9.829409,-12.679142
19.257079,-9.829409,-11.107847
19.734774,-9.829409,-9.536552
19.667692,-9.829409,-7.965258
19.342620,-9.829409,-6.393963
18.953170,-9.829409,-4.822668
18.615267,-9.829409,-3.251373
18.382640,-9.829409,-1.680078
18.262304,-9.829409,-0.108783
18.230053,-9.829409,1.462512
18.245945,-9.829409,3.033807
18.269792,-9.829409,4.605102
18.276645,-9.829409,6.176397
18.272286,-9.829409,7.747692
18.308712,-9.829409,9.318987
18.499624,-9.829409,10.890281
18.504894,-9.010292,-12.679142
19.722853,-9.010292,-11.107847
20.058542,-9.010292,-9.536552
19.895364,-9.010292,-7.965258
19.509578,-9.010292,-6.393963
19.085781,-9.010292,-4.822668
18.732400,-9.010292,-3.251373
18.497179,-9.010292,-1.680078
18.382668,-9.010292,-0.108783
18.361708,-9.010292,1.462512
18.392921,-9.010292,3.033807
18.436199,-9.010292,4.605102
18.468187,-9.010292,6.176397
18.497777,-9.010292,7.747692
18.581592,-9.010292,9.318987
18.839476,-9.010292,10.890281
16.661049,-8.191174,-14.250437
19.020533,-8.191174,-12.679142
20.059327,-8.191174,-11.107847
20.270290,-8.191174,-9.536552
20.025161,-8.191174,-7.965258
19.590049,-8.191174,-6.393963
19.140917,-8.191174,-4.822668
18.779075,-8.191174,-3.251373
18.546665,-8.191174,-1.680078
18.442148,-8.191174,-0.108783
18.435796,-8.191174,1.462512
18.485174,-8.191174,3.033807
18.550632,-8.191174,4.605102
18.610794,-8.191174,6.176397
18.678041,-8.191174,7.747692
18.814002,-8.191174,9.318987
19.145044,-8.191174,10.890281
17.277594,-7.372057,-14.250437
19.413457,-7.372057,-12.679142
20.292437,-7.372057,-11.107847
20.394590,-7.372057,-9.536552
20.080373,-7.372057,-7.965258
19.606123,-7.372057,-6.393963
19.139554,-7.372057,-4.822668
18.775236,-7.372057,-3.251373
18.550089,-7.372057,-1.680078
18.458869,-7.372057,-0.108783
18.469656,-7.372057,1.462512
18.539339,-7.372057,3.033807
18.629111,-7.372057,4.605102
18.719948,-7.372057,6.176397
18.828105,-7.372057,7.747692
19.020598,-7.372057,9.318987
19.430694,-7.372057,10.890281
17.774025,-6.552939,-14.250437
19.707797,-6.552939,-12.679142
20.444759,-6.552939,-11.107847
20.452548,-6.552939,-9.536552
20.080717,-6.552939,-7.965258
19.576215,-6.552939,-6.393963
19.098883,-6.552939,-4.822668
18.736935,-6.552939,-3.251373
18.522448,-6.552939,-1.680078
18.446853,-6.552939,-0.108783
18.476419,-6.552939,1.462512
18.567741,-6.552939,3.033807
18.683232,-6.552939,4.605102
18.806605,-6.552939,6.176397
18.958365,-6.552939,7.747692
19.211297,-6.552939,9.318987
19.705952,-6.552939,10.890281
18.172654,-5.733822,-14.250437
19.924122,-5.733822,-12.679142
20.535203,-5.733822,-11.107847
20.461498,-5.733822,-9.536552
20.042034,-5.733822,-7.965258
19.514754,-5.733822,-6.393963
19.032006,-5.733822,-4.822668
18.676027,-5.733822,-3.251373
18.474435,-5.733822,-1.680078
18.415714,-5.733822,-0.108783
18.464702,-5.733822,1.462512
18.578082,-5.733822,3.033807
18.719866,-5.733822,4.605102
18.876885,-5.733822,6.176397
19.074277,-5.733822,7.747692
19.390973,-5.733822,9.318987
19.975187,-5.733822,10.890281
20.079135,-4.914705,-12.679142
20.578709,-4.914705,-11.107847
20.434696,-4.914705,-9.536552
19.975980,-4.914705,-7.965258
19.431879,-4.914705,-6.393963
18.947628,-4.914705,-4.822668
18.599868,-4.914705,-3.251373
18.412135,-4.914705,-1.680078
18.370349,-4.914705,-0.108783
18.438300,-4.914705,1.462512
18.573136,-4.914705,3.033807
18.740850,-4.914705,4.605102
18.931771,-4.914705,6.176397
19.176050,-4.914705,7.747692
19.559145,-4.914705,9.318987
20.237316,-4.914705,10.890281
18.746648,-4.095587,-14.250437
20.185369,-4.095587,-12.679142
20.585936,-4.095587,-11.107847
20.381012,-4.095587,-9.536552
19.889722,-4.095587,-7.965258
19.333133,-4.095587,-6.393963
18.849750,-4.095587,-4.822668
18.511000,-4.095587,-3.251373
18.336717,-4.095587,-1.680078
18.310638,-4.095587,-0.108783
18.395883,-4.095587,1.462512
18.550446,-4.095587,3.033807
18.742683,-4.095587,4.605102
18.966802,-4.095587,6.176397
19.258344,-4.095587,7.747692
19.709679,-4.095587,9.318987
20.485489,-4.095587,10.890281
18.946611,-3.276470,-14.250437
20.250875,-3.276470,-12.679142
20.562959,-3.276470,-11.107847
20.304629,-3.276470,-9.536552
19.785627,-3.276470,-7.965258
19.219155,-3.276470,-6.393963
18.737367,-3.276470,-4.822668
18.406853,-3.276470,-3.251373
18.244131,-3.276470,-1.680078
18.231130,-3.276470,-0.108783
18.330684,-3.276470,1.462512
18.502014,-3.276470,3.033807
18.716218,-3.276470,4.605102
18.971761,-3.276470,6.176397
19.309960,-3.276470,7.747692
19.830472,-3.276470,9.318987
19.097357,-2.457352,-14.250437
20.278922,-2.457352,-12.679142
20.510962,-2.457352,-11.107847
20.204729,-2.457352,-9.536552
19.660961,-2.457352,-7.965258
19.085375,-2.457352,-6.393963
18.604155,-2.457352,-4.822668
18.279436,-2.457352,-3.251373
18.124796,-2.457352,-1.680078
18.120743,-2.457352,-0.108783
18.230200,-2.457352,1.462512
18.413997,-2.457352,3.033807
18.646354,-2.457352,4.605102
18.930377,-2.457352,6.176397
19.313534,-2.457352,7.747692
19.903155,-2.457352,9.318987
19.199334,-1.638235,-14.250437
20.267686,-1.638235,-12.679142
20.425934,-1.638235,-11.107847
20.075193,-1.638235,-9.536552
19.507580,-1.638235,-7.965258
18.921708,-1.638235,-6.393963
18.438170,-1.638235,-4.822668
18.115028,-1.638235,-3.251373
17.963301,-1.638235,-1.680078
17.962452,-1.638235,-0.108783
18.075879,-1.638235,1.462512
18.266398,-1.638235,3.033807
18.511735,-1.638235,4.605102
18.820012,-1.638235,6.176397
19.245234,-1.638235,7.747692
19.902780,-1.638235,9.318987
19.247702,-0.819117,-14.250437
20.209947,-0.819117,-12.679142
20.298357,-0.819117,-11.107847
19.904291,-0.819117,-9.536552
19.311625,-0.819117,-7.965258
18.712247,-0.819117,-6.393963
18.221541,-0.819117,-4.822668
17.893876,-0.819117,-3.251373
17.738091,-0.819117,-1.680078
17.732989,-0.819117,-0.108783
17.842818,-0.819117,1.462512
18.032764,-0.819117,3.033807
18.284437,-0.819117,4.605102
18.611358,-0.819117,6.176397
19.074449,-0.819117,7.747692
19.797517,-0.819117,9.318987
19.232020,0.000000,-14.250437
20.092781,0.000000,-12.679142
20.112906,0.000000,-11.107847
19.674377,0.000000,-9.536552
19.053213,0.000000,-7.965258
18.434957,0.000000,-6.393963
17.930162,0.000000,-4.822668
17.589885,0.000000,-3.251373
17.421168,0.000000,-1.680078
17.402530,0.000000,-0.108783
17.499455,0.000000,1.462512
17.679876,0.000000,3.033807
17.929668,0.000000,4.605102
18.268132,0.000000,6.176397
18.763484,0.000000,7.747692
19.548346,0.000000,9.318987
12.904536,-16.527745,-12.679142
12.904536,-16.561176,-11.107847
12.904536,-16.589123,-9.536552
12.904536,-16.611585,-7.965258
12.904536,-16.628562,-6.393963
12.904536,-16.640055,-4.822668
12.904536,-16.646064,-3.251373
12.904536,-16.646588,-1.680078
12.904536,-16.641628,-0.108783
12.904536,-16.631183,1.462512
12.904536,-16.615254,3.033807
12.904536,-16.593841,4.605102
12.904536,-16.566942,6.176397
12.904536,-16.534560,7.747692
12.904536,-16.496693,9.318987
12.189003,-16.682476,-12.679142
12.189003,-16.703472,-11.107847
12.189003,-16.718983,-9.536552
12.189003,-16.729010,-7.965258
12.189003,-16.733553,-6.393963
12.189003,-16.732611,-4.822668
12.189003,-16.726184,-3.251373
12.189003,-16.714274,-1.680078
12.189003,-16.696878,-0.108783
12.189003,-16.673999,1.462512
12.189003,-16.645634,3.033807
12.189003,-16.611786,4.605102
12.189003,-16.572453,6.176397
12.189003,-16.527635,7.747692
12.189003,-16.477333,9.318987
12.189003,-16.421547,10.890281
11.473470,-16.818136,-12.679142
11.473470,-16.826696,-11.107847
11.473470,-16.829773,-9.536552
11.473470,-16.827365,-7.965258
11.473470,-16.819472,-6.393963
11.473470,-16.806095,-4.822668
11.473470,-16.787234,-3.251373
11.473470,-16.762888,-1.680078
11.473470,-16.733058,-0.108783
11.473470,-16.697743,1.462512
11.473470,-16.656944,3.033807
11.473470,-16.610660,4.605102
11.473470,-16.558892,6.176397
11.473470,-16.501640,7.747692
11.473470,-16.438903,9.318987
11.473470,-16.370681,10.890281
10.757936,-16.934724,-12.679142
10.757936,-16.930850,-11.107847
10.757936,-16.921491,-9.536552
10.757936,-16.906648,-7.965258
10.757936,-16.886321,-6.393963
10.757936,-16.860509,-4.822668
10.757936,-16.829212,-3.251373
10.757936,-16.792431,-1.680078
10.757936,-16.750166,-0.108783
10.757936,-16.702416,1.462512
10.757936,-16.649182,3.033807
10.757936,-16.590464,4.605102
10.757936,-16.526261,6.176397
10.757936,-16.456573,7.747692
10.757936,-16.381401,9.318987
10.042403,-17.032242,-12.679142
10.042403,-17.015933,-11.107847
10.042403,-16.994139,-9.536552
10.042403,-16.966861,-7.965258
10.042403,-16.934098,-6.393963
10.042403,-16.895851,-4.822668
10.042403,-16.852120,-3.251373
10.042403,-16.802904,-1.680078
10.042403,-16.748204,-0.108783
10.042403,-16.688019,1.462512
10.042403,-16.622350,3.033807
10.042403,-16.551196,4.605102
10.042403,-16.474558,6.176397
10.042403,-16.392436,7.747692
10.042403,-16.304829,9.318987
9.326870,-17.110688,-12.679142
9.326870,-17.081944,-11.107847
9.326870,-17.047715,-9.536552
9.326870,-17.008002,-7.965258
9.326870,-16.962805,-6.393963
9.326870,-16.912123,-4.822668
9.326870,-16.855956,-3.251373
9.326870,-16.794306,-1.680078
9.326870,-16.727170,-0.108783
9.326870,-16.654550,1.462512
9.326870,-16.576446,3.033807
9.326870,-16.492858,4.605102
9.326870,-16.403784,6.176397
9.326870,-16.309227,7.747692
9.326870,-16.209185,9.318987
8.611337,-17.170064,-12.679142
8.611337,-17.128885,-11.107847
8.611337,-17.082221,-9.536552
8.611337,-17.030073,-7.965258
8.611337,-16.972440,-6.393963
8.611337,-16.909323,-4.822668
8.611337,-16.840722,-3.251373
8.611337,-16.766636,-1.680078
8.611337,-16.687066,-0.108783
8.611337,-16.602011,1.462512
8.611337,-16.511472,3.033807
8.611337,-16.415448,4.605102
8.611337,-16.313940,6.176397
8.611337,-16.206947,7.747692
8.611337,-16.094470,9.318987
7.895803,-17.210369,-12.679142
7.895803,-17.156754,-11.107847
7.895803,-17.097656,-9.536552
7.895803,-17.033073,-7.965258
7.895803,-16.963005,-6.393963
7.895803,-16.887453,-4.822668
7.895803,-16.806417,-3.251373
7.895803,-16.719896,-1.680078
7.895803,-16.627890,-0.108783
7.895803,-16.530400,1.462512
7.895803,-16.427426,3.033807
7.895803,-16.318968,4.605102
7.895803,-16.205024,6.176397
7.895803,-16.085597,7.747692
7.895803,-15.960685,9.318987
7.895803,-15.830288,10.890281
7.180270,-17.231602,-12.679142
7.180270,-17.165553,-11.107847
7.180270,-17.094019,-9.536552
7.180270,-17.017001,-7.965258
7.180270,-16.934499,-6.393963
7.180270,-16.846512,-4.822668
7.180270,-16.753040,-3.251373
7.180270,-16.654084,-1.680078
7.180270,-16.549644,-0.108783
7.180270,-16.439719,1.462512
7.180270,-16.324310,3.033807
7.180270,-16.203416,4.605102
7.180270,-16.077038,6.176397
7.180270,-15.945175,7.747692
7.180270,-15.807828,9.318987
7.180270,-15.664997,10.890281
6.464737,-17.233765,-12.679142
6.464737,-17.155281,-11.107847
6.464737,-17.071312,-9.536552
6.464737,-16.981859,-7.965258
6.464737,-16.886921,-6.393963
6.464737,-16.786499,-4.822668
6.464737,-16.680593,-3.251373
6.464737,-16.569202,-1.680078
6.464737,-16.452326,-0.108783
6.464737,-16.329967,1.462512
6.464737,-16.202122,3.033807
6.464737,-16.068794,4.605102
6.464737,-15.929980,6.176397
6.464737,-15.785683,7.747692
6.464737,-15.635901,9.318987
6.464737,-15.480634,10.890281
5.749203,-17.216857,-12.679142
5.749203,-17.125937,-11.107847
5.749203,-17.029534,-9.536552
5.749203,-16.927646,-7.965258
5.749203,-16.820273,-6.393963
5.749203,-16.707416,-4.822668
5.749203,-16.589074,-3.251373
5.749203,-16.465248,-1.680078
5.749203,-16.335938,-0.108783
5.749203,-16.201143,1.462512
5.749203,-16.060864,3.033807
5.749203,-15.915100,4.605102
5.749203,-15.763852,6.176397
5.749203,-15.607119,7.747692
5.749203,-15.444902,9.318987
5.749203,-15.277201,10.890281
5.033670,-17.180878,-12.679142
5.033670,-17.077523,-11.107847
5.033670,-16.968684,-9.536552
5.033670,-16.854361,-7.965258
5.033670,-16.734554,-6.393963
5.033670,-16.609262,-4.822668
5.033670,-16.478485,-3.251373
5.033670,-16.342224,-1.680078
5.033670,-16.200479,-0.108783
5.033670,-16.053249,1.462512
5.033670,-15.900534,3.033807
5.033670,-15.742336,4.605102
5.033670,-15.578653,6.176397
5.033670,-15.409485,7.747692
5.033670,-15.234833,9.318987
5.033670,-15.054696,10.890281
4.318137,-17.125827,-12.679142
4.318137,-17.010038,-11.107847
4.318137,-16.888764,-9.536552
4.318137,-16.762006,-7.965258
4.318137,-16.629763,-6.393963
4.318137,-16.492036,-4.822668
4.318137,-16.348825,-3.251373
4.318137,-16.200129,-1.680078
4.318137,-16.045948,-0.108783
4.318137,-15.886283,1.462512
4.318137,-15.721134,3.033807
4.318137,-15.550500,4.605102
4.318137,-15.374382,6.176397
4.318137,-15.192779,7.747692
4.318137,-15.005692,9.318987
4.318137,-14.813121,10.890281
3.602604,-17.051706,-12.679142
3.602604,-16.923482,-11.107847
3.602604,-16.789773,-9.536552
3.602604,-16.650580,-7.965258
3.602604,-16.505902,-6.393963
3.602604,-16.355740,-4.822668
3.602604,-16.200093,-3.251373
3.602604,-16.038962,-1.680078
3.602604,-15.872347,-0.108783
3.602604,-15.700247,1.462512
3.602604,-15.522663,3.033807
3.602604,-15.339594,4.605102
3.602604,-15.151041,6.176397
3.602604,-14.957003,7.747692
3.602604,-14.757481,9.318987
3.602604,-14.552474,10.890281
2.887070,-16.958514,-12.679142
2.887070,-16.817855,-11.107847
2.887070,-16.671711,-9.536552
2.887070,-16.520082,-7.965258
2.887070,-16.362970,-6.393963
2.887070,-16.200373,-4.822668
2.887070,-16.032291,-3.251373
2.887070,-15.858725,-1.680078
2.887070,-15.679675,-0.108783
2.887070,-15.495140,1.462512
2.887070,-15.305120,3.033807
2.887070,-15.109617,4.605102
2.887070,-14.908628,6.176397
2.887070,-14.702156,7.747692
2.887070,-14.490198,9.318987
2.887070,-14.272757,10.890281
2.171537,-16.846251,-12.679142
2.171537,-16.693156,-11.107847
2.171537,-16.534577,-9.536552
2.171537,-16.370514,-7.965258
2.171537,-16.200967,-6.393963
2.171537,-16.025934,-4.822668
2.171537,-15.845418,-3.251373
2.171537,-15.659417,-1.680078
2.171537,-15.467931,-0.108783
2.171537,-15.270961,1.462512
2.171537,-15.068507,3.033807
2.171537,-14.860568,4.605102
2.171537,-14.647145,6.176397
2.171537,-14.428237,7.747692
2.171537,-14.203845,9.318987
2.171537,-13.973969,10.890281
1.456004,-16.714917,-12.679142
1.456004,-16.549387,-11.107847
1.456004,-16.378373,-9.536552
1.456004,-16.201875,-7.965258
1.456004,-16.019892,-6.393963
1.456004,-15.832425,-4.822668
1.456004,-15.639474,-3.251373
1.456004,-15.441037,-1.680078
1.456004,-15.237117,-0.108783
1.456004,-15.027712,1.462512
1.456004,-14.812823,3.033807
1.456004,-14.592449,4.605102
1.456004,-14.366591,6.176397
1.456004,-14.135248,7.747692
1.456004,-13.898421,9.318987
1.456004,-13.656109,10.890281
0.740470,-16.564511,-12.679142
0.740470,-16.386547,-11.107847
0.740470,-16.203098,-9.536552
0.740470,-16.014165,-7.965258
0.740470,-15.819747,-6.393963
0.740470,-15.619845,-4.822668
0.740470,-15.414458,-3.251373
0.740470,-15.203587,-1.680078
0.740470,-14.987232,-0.108783
0.740470,-14.765392,1.462512
0.740470,-14.538067,3.033807
0.740470,-14.305259,4.605102
0.740470,-14.066965,6.176397
0.740470,-13.823188,7.747692
0.740470,-13.573925,9.318987
0.740470,-13.319179,10.890281
0.024937,-16.395035,-12.679142
0.024937,-16.204636,-11.107847
0.024937,-16.008752,-9.536552
0.024937,-15.807384,-7.965258
0.024937,-15.600531,-6.393963
0.024937,-15.388194,-4.822668
0.024937,-15.170372,-3.251373
0.024937,-14.947066,-1.680078
0.024937,-14.718275,-0.108783
0.024937,-14.484000,1.462512
0.024937,-14.244241,3.033807
0.024937,-13.998997,4.605102
0.024937,-13.748269,6.176397
0.024937,-13.492056,7.747692
0.024937,-13.230359,9.318987
0.024937,-12.963177,10.890281
6.134475,-15.958587,-12.679142
9.633703,-15.981520,-11.107847
11.681594,-16.001711,-9.536552
12.768567,-16.019160,-7.965258
13.265769,-16.033866,-6.393963
13.440563,-16.045830,-4.822668
13.472019,-16.055052,-3.251373
13.466397,-16.061531,-1.680078
13.472638,-16.065269,-0.108783
13.497852,-16.066264,1.462512
13.522805,-16.064517,3.033807
13.517405,-16.060028,4.605102
13.456196,-16.052796,6.176397
13.333837,-16.042822,7.747692
13.180598,-16.030106,9.318987
13.077842,-16.014648,10.890281
0.417323,-17.913944,-13.116924
0.417323,-16.082833,-13.219442
0.417323,-14.306383,-13.129664
0.417323,-12.562319,-12.925950
0.417323,-10.831689,-12.674978
0.417323,-9.098861,-12.431738
0.417323,-7.351525,-12.239536
0.417323,-5.580692,-12.129994
0.417323,-3.780696,-12.123049
0.417323,-1.949191,-12.226953
0.417323,-0.087153,-12.438272
0.417323,1.801121,-12.741890
0.417323,3.708013,-13.111003
0.417323,5.622582,-13.507124
0.417323,7.530566,-13.880082
