-19.000585,6.933935,-4.917107
-18.918014,6.933935,-3.315043
-18.989457,6.933935,-1.712978
-19.208705,6.933935,-0.110913
-19.548713,6.933935,1.491152
-19.961604,6.933935,3.093216
-20.378672,6.933935,4.695281
-20.710375,6.933935,6.297346
-20.846341,6.933935,7.899411
-19.851676,8.089591,-12.927431
-19.613197,8.089591,-11.325366
-19.270061,8.089591,-9.723302
-18.915031,8.089591,-8.121237
-18.620037,8.089591,-6.519172
-18.436177,8.089591,-4.917107
-18.393717,8.089591,-3.315043
-18.502090,8.089591,-1.712978
-18.749898,8.089591,-0.110913
-19.104910,8.089591,1.491152
-19.514062,8.089591,3.093216
-19.903461,8.089591,4.695281
-20.178379,8.089591,6.297346
-20.223256,8.089591,7.899411
-19.901700,8.089591,9.501475
-19.212116,9.245246,-12.927431
-18.945963,9.245246,-11.325366
-18.599046,9.245246,-9.723302
-18.258940,9.245246,-8.121237
-17.992390,9.245246,-6.519172
-17.845305,9.245246,-4.917107
-17.842765,9.245246,-3.315043
-17.989016,9.245246,-1.712978
-18.267473,9.245246,-0.110913
-18.640718,9.245246,1.491152
-19.050501,9.245246,3.093216
-19.417740,9.245246,4.695281
-19.642522,9.245246,6.297346
-19.604099,9.245246,7.899411
-19.160892,9.245246,9.501475
-18.528050,10.400902,-12.927431
-18.231889,10.400902,-11.325366
-17.879998,10.400902,-9.723302
-17.554764,10.400902,-8.121237
-17.317743,10.400902,-6.519172
-17.209660,10.400902,-4.917107
-17.250407,10.400902,-3.315043
-17.439042,10.400902,-1.712978
-17.753795,10.400902,-0.110913
-18.152060,10.400902,1.491152
-18.570400,10.400902,3.093216
-18.924546,10.400902,4.695281
-19.109397,10.400902,6.297346
-18.999021,10.400902,7.899411
-18.446650,10.400902,9.501475
-17.747527,11.556558,-12.927431
-17.422584,11.556558,-11.325366
-17.068082,11.556558,-9.723302
-16.761223,11.556558,-8.121237
-16.558377,11.556558,-6.519172
-16.495080,11.556558,-4.917107
-16.586037,11.556558,-3.315043
-16.825121,11.556558,-1.712978
-17.185374,11.556558,-0.110913
-17.619002,11.556558,1.491152
-18.057383,11.556558,3.093216
-18.411061,11.556558,4.695281
-18.569747,11.556558,6.297346
-18.402321,11.556558,7.899411
-17.756830,11.556558,9.501475
-16.802744,12.712214,-12.927431
-16.453799,12.712214,-11.325366
-16.102608,12.712214,-9.723302
-15.821187,12.712214,-8.121237
-15.660716,12.712214,-6.519172
-15.651546,12.712214,-4.917107
-15.803196,12.712214,-3.315043
-16.104351,12.712214,-1.712978
-16.522865,12.712214,-0.110913
-17.005759,12.712214,1.491152
-17.479223,12.712214,3.093216
-17.848614,12.712214,4.695281
-17.998456,12.712214,6.297346
-17.792442,12.712214,7.899411
-17.073434,12.712214,9.501475
-15.610041,13.867869,-12.927431
-15.245434,13.867869,-11.325366
-14.907034,13.867869,-9.723302
-14.661668,13.867869,-8.121237
-14.555333,13.867869,-6.519172
-14.613190,13.867869,-4.917107
-14.839572,13.867869,-3.315043
-15.217977,13.867869,-1.712978
-15.711072,13.867869,-0.110913
-16.260691,13.867869,1.491152
-16.787837,13.867869,3.093216
-17.192680,13.867869,4.695281
-17.354557,13.867869,6.297346
-17.131976,13.867869,7.899411
-16.362608,13.867869,9.501475
-14.069904,15.023525,-12.927431
-13.701532,15.023525,-11.325366
-13.388960,15.023525,-9.723302
-13.193828,15.023525,-8.121237
-13.156944,15.023525,-6.519172
-13.298286,15.023525,-4.917107
-13.616996,15.023525,-3.315043
-14.091388,15.023525,-1.712978
-14.678941,15.023525,-0.110913
-15.316302,15.023525,1.491152
-15.919287,15.023525,3.093216
-16.382879,15.023525,4.695281
-16.581229,15.023525,6.297346
-16.367657,15.023525,7.899411
-12.066968,16.179181,-12.927431
-11.710286,16.179181,-11.325366
-11.440135,16.179181,-9.723302
-11.312971,16.179181,-8.121237
-11.364414,16.179181,-6.519172
-11.609254,16.179181,-4.917107
-12.041449,16.179181,-3.315043
-12.634122,16.179181,-1.712978
-13.339567,16.179181,-0.110913
-14.089245,16.179181,1.491152
-14.793783,16.179181,3.093216
-15.342979,16.179181,4.695281
-15.605797,16.179181,6.297346
-15.430368,16.179181,7.899411
-14.643991,16.179181,9.501475
-9.470012,17.334837,-12.927431
-9.144030,17.334837,-11.325366
-8.936454,17.334837,-9.723302
-8.898550,17.334837,-8.121237
-9.060752,17.334837,-6.519172
-9.432663,17.334837,-4.917107
-10.003053,17.334837,-3.315043
-10.739860,17.334837,-1.712978
-11.590190,17.334837,-0.110913
-12.480316,17.334837,1.491152
-13.315681,17.334837,3.093216
-13.980893,17.334837,4.695281
-14.339730,17.334837,6.297346
-14.235136,17.334837,7.899411
-13.489225,17.334837,9.501475
-6.131959,18.490493,-12.927431
-5.859250,18.490493,-11.325366
-5.737958,18.490493,-9.723302
-5.814163,18.490493,-8.121237
-6.113114,18.490493,-6.519172
-6.639225,18.490493,-4.917107
-7.376081,18.490493,-3.315043
-8.286431,18.490493,-1.712978
-9.312195,18.490493,-0.110913
-10.374460,18.490493,1.491152
-11.373481,18.490493,3.093216
-12.188679,18.490493,4.695281
-12.678645,18.490493,6.297346
-12.681136,18.490493,7.899411
-12.013080,18.490493,9.501475
-1.889883,19.646148,-12.927431
-1.696572,19.646148,-11.325366
-1.688831,19.646148,-9.723302
-1.907554,19.646148,-8.121237
-2.372801,19.646148,-6.519172
-3.083800,19.646148,-4.917107
-4.018948,19.646148,-3.315043
-5.135809,19.646148,-1.712978
-6.371116,19.646148,-0.110913
-7.640767,19.646148,1.491152
-8.839830,19.646148,3.093216
-9.842541,19.646148,4.695281
-10.502304,19.646148,6.297346
-10.651688,19.646148,7.899411
-10.102434,19.646148,9.501475
-1.134115,20.801804,-1.712978
-2.616628,20.801804,-0.110913
-4.132470,20.801804,1.491152
-5.571522,20.801804,3.093216
-6.802831,20.801804,4.695281
-7.674615,20.801804,6.297346
-8.014258,20.801804,7.899411
-7.628311,20.801804,9.501475
-1.409495,21.957460,3.093216
-2.914046,21.957460,4.695281
-4.043634,21.957460,6.297346
-4.620457,21.957460,7.899411
-10.549177,-18.439860,-12.927431
-14.280578,-18.439860,-11.325366
-16.378854,-18.439860,-9.723302
-17.412554,-18.439860,-8.121237
-17.809492,-18.439860,-6.519172
-17.875255,-18.439860,-4.917107
-17.811715,-18.439860,-3.315043
-17.735536,-18.439860,-1.712978
-17.696690,-18.439860,-0.110913
-17.696962,-18.439860,1.491152
-17.708464,-18.439860,3.093216
-17.692145,-18.439860,4.695281
-17.616302,-18.439860,6.297346
-17.475087,-18.439860,7.899411
-17.307022,-18.439860,9.501475
-17.213508,-18.439860,11.103540
-17.377336,-18.439860,12.705605
-13.280057,-17.415424,-12.927431
-16.594123,-17.415424,-11.325366
-18.371625,-17.415424,-9.723302
-19.163989,-17.415424,-8.121237
-19.383716,-17.415424,-6.519172
-19.322892,-17.415424,-4.917107
-19.171697,-17.415424,-3.315043
-19.036918,-17.415424,-1.712978
-18.960457,-17.415424,-0.110913
-18.937845,-17.415424,1.491152
-18.936749,-17.415424,3.093216
-18.915483,-17.415424,4.695281
-18.841522,-17.415424,6.297346
-18.710008,-17.415424,7.899411
-18.562263,-17.415424,9.501475
-18.504299,-17.415424,11.103540
-18.725331,-17.415424,12.705605
-15.574034,-16.390987,-12.927431
-18.503333,-16.390987,-11.325366
-19.987833,-16.390987,-9.723302
-20.562291,-16.390987,-8.121237
-20.624351,-16.390987,-6.519172
-20.453050,-16.390987,-4.917107
-20.227334,-16.390987,-3.315043
-20.044565,-16.390987,-1.712978
-19.939033,-16.390987,-0.110913
-19.900466,-16.390987,1.491152
-19.892541,-16.390987,3.093216
-19.871394,-16.390987,4.695281
-19.804132,-16.390987,6.297346
-19.687341,-16.390987,7.899411
-19.565598,-16.390987,9.501475
-19.549982,-16.390987,11.103540
-17.479476,-15.366550,-12.927431
-20.055607,-15.366550,-11.325366
-21.274009,-15.366550,-9.723302
-21.653222,-15.366550,-8.121237
-21.576486,-15.366550,-6.519172
-21.310246,-15.366550,-4.917107
-21.022668,-15.366550,-3.315043
-20.802145,-15.366550,-1.712978
-20.675807,-15.366550,-0.110913
-20.628036,-15.366550,1.491152
-20.618975,-15.366550,3.093216
-20.603034,-15.366550,4.695281
-20.547407,-15.366550,6.297346
-20.450579,-15.366550,7.899411
-20.360838,-15.366550,9.501475
-20.394783,-15.366550,11.103540
-19.043059,-14.342114,-12.927431
-21.296529,-14.342114,-11.325366
-22.274738,-14.342114,-9.723302
-22.480468,-14.342114,-8.121237
-22.283009,-14.342114,-6.519172
-21.936669,-14.342114,-4.917107
-21.599288,-14.342114,-3.315043
-21.350744,-14.342114,-1.712978
-21.211463,-14.342114,-0.110913
-21.160937,-14.342114,1.491152
-21.156225,-14.342114,3.093216
-21.150471,-14.342114,4.695281
-21.111408,-14.342114,6.297346
-21.039877,-14.342114,7.899411
-20.988328,-14.342114,9.501475
-21.079337,-14.342114,11.103540
-20.309404,-13.317677,-12.927431
-22.269495,-13.317677,-11.325366
-23.032294,-13.317677,-9.723302
-23.085279,-13.317677,-8.121237
-22.784244,-13.317677,-6.519172
-22.371817,-13.317677,-4.917107
-21.995964,-13.317677,-3.315043
-21.728503,-13.317677,-1.712978
-21.583614,-13.317677,-0.110913
-21.536348,-13.317677,1.491152
-21.541141,-13.317677,3.093216
-21.550321,-13.317677,4.695281
-21.532618,-13.317677,6.297346
-21.491679,-13.317677,7.899411
-21.484577,-13.317677,9.501475
-21.640316,-13.317677,11.103540
-21.320704,-12.293240,-12.927431
-23.015351,-12.293240,-11.325366
-23.586274,-12.293240,-9.723302
-23.506100,-12.293240,-8.121237
-23.117585,-12.293240,-6.519172
-22.652129,-12.293240,-4.917107
-22.248281,-12.293240,-3.315043
-21.970253,-12.293240,-1.712978
-21.826432,-12.293240,-0.110913
-21.787887,-12.293240,1.491152
-21.806880,-12.293240,3.093216
-21.835381,-12.293240,4.695281
-21.843572,-12.293240,6.297346
-21.838362,-12.293240,7.899411
-21.881897,-12.293240,9.501475
-22.110068,-12.293240,11.103540
-22.116366,-11.268804,-12.927431
-23.572026,-11.268804,-11.325366
-23.973229,-11.268804,-9.723302
-23.778205,-11.268804,-8.121237
-23.317128,-11.268804,-6.519172
-22.810621,-11.268804,-4.917107
-22.388273,-11.268804,-3.315043
-22.107146,-11.268804,-1.712978
-21.970286,-11.268804,-0.110913
-21.945236,-11.268804,1.491152
-21.982541,-11.268804,3.093216
-22.034264,-11.268804,4.695281
-22.072495,-11.268804,6.297346
-22.107860,-11.268804,7.899411
-22.208033,-11.268804,9.501475
-22.516247,-11.268804,11.103540
-19.912671,-10.244367,-14.529496
-22.732639,-10.244367,-12.927431
-23.974167,-10.244367,-11.325366
-24.226302,-10.244367,-9.723302
-23.933334,-10.244367,-8.121237
-23.413303,-10.244367,-6.519172
-22.876517,-10.244367,-4.917107
-22.444057,-10.244367,-3.315043
-22.166289,-10.244367,-1.712978
-22.041375,-10.244367,-0.110913
-22.033783,-10.244367,1.491152
-22.092797,-10.244367,3.093216
-22.171031,-10.244367,4.695281
-22.242934,-10.244367,6.297346
-22.323305,-10.244367,7.899411
-22.485801,-10.244367,9.501475
-22.881449,-10.244367,11.103540
-20.649542,-9.219930,-14.529496
-23.202247,-9.219930,-12.927431
-24.252771,-9.219930,-11.325366
-24.374861,-9.219930,-9.723302
-23.999320,-9.219930,-8.121237
-23.432515,-9.219930,-6.519172
-22.874888,-9.219930,-4.917107
-22.439469,-9.219930,-3.315043
-22.170382,-9.219930,-1.712978
-22.061359,-9.219930,-0.110913
-22.074251,-9.219930,1.491152
-22.157534,-9.219930,3.093216
-22.264826,-9.219930,4.695281
-22.373391,-9.219930,6.297346
-22.502656,-9.219930,7.899411
-22.732717,-9.219930,9.501475
-23.222849,-9.219930,11.103540
-21.242858,-8.195493,-14.529496
-23.554032,-8.195493,-12.927431
-24.434821,-8.195493,-11.325366
-24.444130,-8.195493,-9.723302
-23.999731,-8.195493,-8.121237
-23.396770,-8.195493,-6.519172
-22.826280,-8.195493,-4.917107
-22.393693,-8.195493,-3.315043
-22.137346,-8.195493,-1.712978
-22.046998,-8.195493,-0.110913
-22.082334,-8.195493,1.491152
-22.191479,-8.195493,3.093216
-22.329509,-8.195493,4.695281
-22.476960,-8.195493,6.297346
-22.658338,-8.195493,7.899411
-22.960634,-8.195493,9.501475
-23.551826,-8.195493,11.103540
-21.719285,-7.171057,-14.529496
-23.812575,-7.171057,-12.927431
-24.542917,-7.171057,-11.325366
-24.454827,-7.171057,-9.723302
-23.953499,-7.171057,-8.121237
-23.323314,-7.171057,-6.519172
-22.746351,-7.171057,-4.917107
-22.320899,-7.171057,-3.315043
-22.079963,-7.171057,-1.712978
-22.009781,-7.171057,-0.110913
-22.068330,-7.171057,1.491152
-22.203838,-7.171057,3.093216
-22.373292,-7.171057,4.695281
-22.560956,-7.171057,6.297346
-22.796871,-7.171057,7.899411
-23.175375,-7.171057,9.501475
-23.873607,-7.171057,11.103540
-23.997841,-6.146620,-12.927431
-24.594913,-6.146620,-11.325366
-24.422794,-6.146620,-9.723302
-23.874554,-6.146620,-8.121237
-23.224265,-6.146620,-6.519172
-22.645505,-6.146620,-4.917107
-22.229875,-6.146620,-3.315043
-22.005504,-6.146620,-1.712978
-21.955564,-6.146620,-0.110913
-22.036776,-6.146620,1.491152
-22.197927,-6.146620,3.093216
-22.398372,-6.146620,4.695281
-22.626554,-6.146620,6.297346
-22.918507,-6.146620,7.899411
-23.376369,-6.146620,9.501475
-24.186893,-6.146620,11.103540
-22.405301,-5.122183,-14.529496
-24.124808,-5.122183,-12.927431
-24.603550,-5.122183,-11.325366
-24.358634,-5.122183,-9.723302
-23.771461,-5.122183,-8.121237
-23.106247,-5.122183,-6.519172
-22.528526,-5.122183,-4.917107
-22.123663,-5.122183,-3.315043
-21.915368,-5.122183,-1.712978
-21.884199,-5.122183,-0.110913
-21.986080,-5.122183,1.491152
-22.170808,-5.122183,3.093216
-22.400564,-5.122183,4.695281
-22.668421,-5.122183,6.297346
-23.016862,-5.122183,7.899411
-23.556281,-5.122183,9.501475
-24.483500,-5.122183,11.103540
-22.644290,-4.097747,-14.529496
-24.203098,-4.097747,-12.927431
-24.576089,-4.097747,-11.325366
-24.267343,-4.097747,-9.723302
-23.647051,-4.097747,-8.121237
-22.970025,-4.097747,-6.519172
-22.394209,-4.097747,-4.917107
-21.999191,-4.097747,-3.315043
-21.804712,-4.097747,-1.712978
-21.789174,-4.097747,-0.110913
-21.908157,-4.097747,1.491152
-22.112924,-4.097747,3.093216
-22.368933,-4.097747,4.695281
-22.674348,-4.097747,6.297346
-23.078551,-4.097747,7.899411
-23.700648,-4.097747,9.501475
-22.824456,-3.073310,-14.529496
-24.236618,-3.073310,-12.927431
-24.513945,-3.073310,-11.325366
-24.147946,-3.073310,-9.723302
-23.498055,-3.073310,-8.121237
-22.810136,-3.073310,-6.519172
-22.234999,-3.073310,-4.917107
-21.846907,-3.073310,-3.315043
-21.662087,-3.073310,-1.712978
-21.657243,-3.073310,-0.110913
-21.788062,-3.073310,1.491152
-22.007729,-3.073310,3.093216
-22.285435,-3.073310,4.695281
-22.624887,-3.073310,6.297346
-23.082823,-3.073310,7.899411
-23.787516,-3.073310,9.501475
-22.946336,-2.048873,-14.529496
-24.223190,-2.048873,-12.927431
-24.412323,-2.048873,-11.325366
-23.993129,-2.048873,-9.723302
-23.314740,-2.048873,-8.121237
-22.614527,-2.048873,-6.519172
-22.036620,-2.048873,-4.917107
-21.650413,-2.048873,-3.315043
-21.469074,-2.048873,-1.712978
-21.468060,-2.048873,-0.110913
-21.603623,-2.048873,1.491152
-21.831325,-2.048873,3.093216
-22.124542,-2.048873,4.695281
-22.492983,-2.048873,6.297346
-23.001193,-2.048873,7.899411
-23.787068,-2.048873,9.501475
-23.004143,-1.024437,-14.529496
-24.154183,-1.024437,-12.927431
-24.259848,-1.024437,-11.325366
-23.788873,-1.024437,-9.723302
-23.080541,-1.024437,-8.121237
-22.364187,-1.024437,-6.519172
-21.777714,-1.024437,-4.917107
-21.386100,-1.024437,-3.315043
-21.199912,-1.024437,-1.712978
-21.193814,-1.024437,-0.110913
-21.325077,-1.024437,1.491152
-21.552094,-1.024437,3.093216
-21.852884,-1.024437,4.695281
-22.243608,-1.024437,6.297346
-22.797077,-1.024437,7.899411
-23.661261,-1.024437,9.501475
-22.985401,0.000000,-14.529496
-24.014150,0.000000,-12.927431
-24.038203,0.000000,-11.325366
-23.514089,0.000000,-9.723302
-22.771697,0.000000,-8.121237
-22.032780,0.000000,-6.519172
-21.429468,0.000000,-4.917107
-21.022781,0.000000,-3.315043
-20.821137,0.000000,-1.712978
-20.798862,0.000000,-0.110913
-20.914703,0.000000,1.491152
-21.130335,0.000000,3.093216
-21.428877,0.000000,4.695281
-21.833397,0.000000,6.297346
-22.425424,0.000000,7.899411
-23.363462,0.000000,9.501475
-15.423025,-20.670576,-12.927431
-15.423025,-20.712386,-11.325366
-15.423025,-20.747338,-9.723302
-15.423025,-20.775430,-8.121237
-15.423025,-20.796663,-6.519172
-15.423025,-20.811037,-4.917107
-15.423025,-20.818552,-3.315043
-15.423025,-20.819207,-1.712978
-15.423025,-20.813004,-0.110913
-15.423025,-20.799941,1.491152
-15.423025,-20.780019,3.093216
-15.423025,-20.753238,4.695281
-15.423025,-20.719598,6.297346
-15.423025,-20.679098,7.899411
-15.423025,-20.631740,9.501475
-14.567846,-20.864091,-12.927431
-14.567846,-20.890349,-11.325366
-14.567846,-20.909749,-9.723302
-14.567846,-20.922289,-8.121237
-14.567846,-20.927970,-6.519172
-14.567846,-20.926792,-4.917107
-14.567846,-20.918755,-3.315043
-14.567846,-20.903859,-1.712978
-14.567846,-20.882103,-0.110913
-14.567846,-20.853489,1.491152
-14.567846,-20.818015,3.093216
-14.567846,-20.775682,4.695281
-14.567846,-20.726489,6.297346
-14.567846,-20.670438,7.899411
-14.567846,-20.607528,9.501475
-14.567846,-20.537758,11.103540
-13.712667,-21.033755,-12.927431
-13.712667,-21.044461,-11.325366
-13.712667,-21.048309,-9.723302
-13.712667,-21.045297,-8.121237
-13.712667,-21.035426,-6.519172
-13.712667,-21.018696,-4.917107
-13.712667,-20.995107,-3.315043
-13.712667,-20.964659,-1.712978
-13.712667,-20.927351,-0.110913
-13.712667,-20.883185,1.491152
-13.712667,-20.832159,3.093216
-13.712667,-20.774274,4.695281
-13.712667,-20.709530,6.297346
-13.712667,-20.637926,7.899411
-13.712667,-20.559464,9.501475
-13.712667,-20.474142,11.103540
-12.857488,-21.179567,-12.927431
-12.857488,-21.174722,-11.325366
-12.857488,-21.163018,-9.723302
-12.857488,-21.144454,-8.121237
-12.857488,-21.119031,-6.519172
-12.857488,-21.086749,-4.917107
-12.857488,-21.047608,-3.315043
-12.857488,-21.001608,-1.712978
-12.857488,-20.948748,-0.110913
-12.857488,-20.889030,1.491152
-12.857488,-20.822452,3.093216
-12.857488,-20.749015,4.695281
-12.857488,-20.668719,6.297346
-12.857488,-20.581563,7.899411
-12.857488,-20.487549,9.501475
-12.002310,-21.301529,-12.927431
-12.002310,-21.281131,-11.325366
-12.002310,-21.253875,-9.723302
-12.002310,-21.219759,-8.121237
-12.002310,-21.178785,-6.519172
-12.002310,-21.130951,-4.917107
-12.002310,-21.076258,-3.315043
-12.002310,-21.014705,-1.712978
-12.002310,-20.946294,-0.110913
-12.002310,-20.871023,1.491152
-12.002310,-20.788893,3.093216
-12.002310,-20.699905,4.695281
-12.002310,-20.604056,6.297346
-12.002310,-20.501349,7.899411
-12.002310,-20.391783,9.501475
-11.147131,-21.399639,-12.927431
-11.147131,-21.363689,-11.325366
-11.147131,-21.320881,-9.723302
-11.147131,-21.271213,-8.121237
-11.147131,-21.214687,-6.519172
-11.147131,-21.151301,-4.917107
-11.147131,-21.081056,-3.315043
-11.147131,-21.003951,-1.712978
-11.147131,-20.919988,-0.110913
-11.147131,-20.829166,1.491152
-11.147131,-20.731484,3.093216
-11.147131,-20.626943,4.695281
-11.147131,-20.515543,6.297346
-11.147131,-20.397284,7.899411
-11.147131,-20.272165,9.501475
-10.291952,-21.473897,-12.927431
-10.291952,-21.422396,-11.325366
-10.291952,-21.364036,-9.723302
-10.291952,-21.298816,-8.121237
-10.291952,-21.226738,-6.519172
-10.291952,-21.147800,-4.917107
-10.291952,-21.062003,-3.315043
-10.291952,-20.969346,-1.712978
-10.291952,-20.869831,-0.110913
-10.291952,-20.763457,1.491152
-10.291952,-20.650223,3.093216
-10.291952,-20.530130,4.695281
-10.291952,-20.403178,6.297346
-10.291952,-20.269367,7.899411
-10.291952,-20.128696,9.501475
-9.436773,-21.524305,-12.927431
-9.436773,-21.457252,-11.325366
-9.436773,-21.383339,-9.723302
-9.436773,-21.302568,-8.121237
-9.436773,-21.214937,-6.519172
-9.436773,-21.120447,-4.917107
-9.436773,-21.019098,-3.315043
-9.436773,-20.910890,-1.712978
-9.436773,-20.795823,-0.110913
-9.436773,-20.673896,1.491152
-9.436773,-20.545111,3.093216
-9.436773,-20.409466,4.695281
-9.436773,-20.266962,6.297346
-9.436773,-20.117599,7.899411
-9.436773,-19.961376,9.501475
-9.436773,-19.798295,11.103540
-8.581594,-21.550861,-12.927431
-8.581594,-21.468256,-11.325366
-8.581594,-21.378791,-9.723302
-8.581594,-21.282468,-8.121237
-8.581594,-21.179285,-6.519172
-8.581594,-21.069243,-4.917107
-8.581594,-20.952343,-3.315043
-8.581594,-20.828582,-1.712978
-8.581594,-20.697963,-0.110913
-8.581594,-20.560485,1.491152
-8.581594,-20.416147,3.093216
-8.581594,-20.264950,4.695281
-8.581594,-20.106894,6.297346
-8.581594,-19.941979,7.899411
-8.581594,-19.770205,9.501475
-8.581594,-19.591571,11.103540
-7.726415,-21.553566,-12.927431
-7.726415,-21.455409,-11.325366
-7.726415,-21.350392,-9.723302
-7.726415,-21.238517,-8.121237
-7.726415,-21.119782,-6.519172
-7.726415,-20.994188,-4.917107
-7.726415,-20.861736,-3.315043
-7.726415,-20.722423,-1.712978
-7.726415,-20.576252,-0.110913
-7.726415,-20.423222,1.491152
-7.726415,-20.263332,3.093216
-7.726415,-20.096583,4.695281
-7.726415,-19.922975,6.297346
-7.726415,-19.742508,7.899411
-7.726415,-19.555182,9.501475
-7.726415,-19.360997,11.103540
-6.871236,-21.532419,-12.927431
-6.871236,-21.418710,-11.325366
-6.871236,-21.298142,-9.723302
-6.871236,-21.170714,-8.121237
-6.871236,-21.036428,-6.519172
-6.871236,-20.895282,-4.917107
-6.871236,-20.747277,-3.315043
-6.871236,-20.592413,-1.712978
-6.871236,-20.430690,-0.110913
-6.871236,-20.262108,1.491152
-6.871236,-20.086666,3.093216
-6.871236,-19.904365,4.695281
-6.871236,-19.715205,6.297346
-6.871236,-19.519186,7.899411
-6.871236,-19.316308,9.501475
-6.871236,-19.106571,11.103540
-6.016057,-21.487421,-12.927431
-6.016057,-21.358160,-11.325366
-6.016057,-21.222040,-9.723302
-6.016057,-21.079061,-8.121237
-6.016057,-20.929222,-6.519172
-6.016057,-20.772525,-4.917107
-6.016057,-20.608968,-3.315043
-6.016057,-20.438552,-1.712978
-6.016057,-20.261276,-0.110913
-6.016057,-20.077142,1.491152
-6.016057,-19.886149,3.093216
-6.016057,-19.688296,4.695281
-6.016057,-19.483584,6.297346
-6.016057,-19.272013,7.899411
-6.016057,-19.053583,9.501475
-6.016057,-18.828293,11.103540
-5.160878,-21.418572,-12.927431
-5.160878,-21.273759,-11.325366
-5.160878,-21.122087,-9.723302
-5.160878,-20.963556,-8.121237
-5.160878,-20.798165,-6.519172
-5.160878,-20.625916,-4.917107
-5.160878,-20.446807,-3.315043
-5.160878,-20.260839,-1.712978
-5.160878,-20.068012,-0.110913
-5.160878,-19.868325,1.491152
-5.160878,-19.661780,3.093216
-5.160878,-19.448375,4.695281
-5.160878,-19.228111,6.297346
-5.160878,-19.000988,7.899411
-5.160878,-18.767006,9.501475
-5.160878,-18.526165,11.103540
-4.305699,-21.325872,-12.927431
-4.305699,-21.165507,-11.325366
-4.305699,-20.998283,-9.723302
-4.305699,-20.824200,-8.121237
-4.305699,-20.643257,-6.519172
-4.305699,-20.455455,-4.917107
-4.305699,-20.260795,-3.315043
-4.305699,-20.059275,-1.712978
-4.305699,-19.850896,-0.110913
-4.305699,-19.635657,1.491152
-4.305699,-19.413560,3.093216
-4.305699,-19.184603,4.695281
-4.305699,-18.948787,6.297346
-4.305699,-18.706112,7.899411
-4.305699,-18.456578,9.501475
-4.305699,-18.200185,11.103540
-3.450520,-21.209320,-12.927431
-3.450520,-21.033403,-11.325366
-3.450520,-20.850627,-9.723302
-3.450520,-20.660992,-8.121237
-3.450520,-20.464498,-6.519172
-3.450520,-20.261144,-4.917107
-3.450520,-20.050931,-3.315043
-3.450520,-19.833859,-1.712978
-3.450520,-19.609928,-0.110913
-3.450520,-19.379138,1.491152
-3.450520,-19.141488,3.093216
-3.450520,-18.896980,4.695281
-3.450520,-18.645612,6.297346
-3.450520,-18.387385,7.899411
-3.450520,-18.122299,9.501475
-3.450520,-17.850354,11.103540
-2.595341,-21.068917,-12.927431
-2.595341,-20.877448,-11.325366
-2.595341,-20.679120,-9.723302
-2.595341,-20.473933,-8.121237
-2.595341,-20.261887,-6.519172
-2.595341,-20.042981,-4.917107
-2.595341,-19.817216,-3.315043
-2.595341,-19.584592,-1.712978
-2.595341,-19.345109,-0.110913
-2.595341,-19.098767,1.491152
-2.595341,-18.845566,3.093216
-2.595341,-18.585505,4.695281
-2.595341,-18.318585,6.297346
-2.595341,-18.044807,7.899411
-2.595341,-17.764169,9.501475
-2.595341,-17.476671,11.103540
-1.740162,-20.904663,-12.927431
-1.740162,-20.697642,-11.325366
-1.740162,-20.483762,-9.723302
-1.740162,-20.263023,-8.121237
-1.740162,-20.035425,-6.519172
-1.740162,-19.800967,-4.917107
-1.740162,-19.559650,-3.315043
-1.740162,-19.311474,-1.712978
-1.740162,-19.056439,-0.110913
-1.740162,-18.794545,1.491152
-1.740162,-18.525792,3.093216
-1.740162,-18.250179,4.695281
-1.740162,-17.967708,6.297346
-1.740162,-17.678377,7.899411
-1.740162,-17.382187,9.501475
-1.740162,-17.079138,11.103540
-0.884983,-20.716557,-12.927431
-0.884983,-20.493985,-11.325366
-0.884983,-20.264553,-9.723302
-0.884983,-20.028261,-8.121237
-0.884983,-19.785111,-6.519172
-0.884983,-19.535102,-4.917107
-0.884983,-19.278233,-3.315043
-0.884983,-19.014505,-1.712978
-0.884983,-18.743918,-0.110913
-0.884983,-18.466472,1.491152
-0.884983,-18.182167,3.093216
-0.884983,-17.891002,4.695281
-0.884983,-17.592978,6.297346
-0.884983,-17.288096,7.899411
-0.884983,-16.976354,9.501475
-0.884983,-16.657752,11.103540
-0.029804,-20.504601,-12.927431
-0.029804,-20.266476,-11.325366
-0.029804,-20.021492,-9.723302
-0.029804,-19.769649,-8.121237
-0.029804,-19.510946,-6.519172
-0.029804,-19.245385,-4.917107
-0.029804,-18.972964,-3.315043
-0.029804,-18.693685,-1.712978
-0.029804,-18.407546,-0.110913
-0.029804,-18.114547,1.491152
-0.029804,-17.814690,3.093216
-0.029804,-17.507974,4.695281
-0.029804,-17.194398,6.297346
-0.029804,-16.873963,7.899411
-0.029804,-16.546669,9.501475
-0.029804,-16.212516,11.103540
-7.331698,-19.958753,-12.927431
-11.513846,-19.987434,-11.325366
-13.961410,-20.012686,-9.723302
-15.260520,-20.034508,-8.121237
-15.854757,-20.052901,-6.519172
-16.063665,-20.067864,-4.917107
-16.101260,-20.079397,-3.315043
-16.094540,-20.087501,-1.712978
-16.101999,-20.092175,-0.110913
-16.132134,-20.093420,1.491152
-16.161957,-20.091235,3.093216
-16.155504,-20.085620,4.695281
-16.082348,-20.076576,6.297346
-15.936110,-20.064102,7.899411
-15.752964,-20.048199,9.501475
-15.630154,-20.028866,11.103540
-0.498769,-22.404238,-13.373786
-0.498769,-20.114142,-13.478311
-0.498769,-17.892408,-13.386775
-0.498769,-15.711179,-13.179072
-0.498769,-13.546750,-12.923185
-0.498769,-11.379573,-12.675182
-0.498769,-9.194251,-12.479216
-0.498769,-6.979544,-12.367530
-0.498769,-4.728362,-12.360448
-0.498769,-2.437774,-12.466387
-0.498769,-0.108999,-12.681844
-0.498769,2.252589,-12.991407
-0.498769,4.637460,-13.367749
-0.498769,7.031933,-13.771627
-0.498769,9.418171,-14.151888
-0.498769,11.774184,-14.445463
-0.498769,14.073827,-14.577371
-0.498769,16.286803,-14.460716
-0.498769,18.378658,-13.996688
-0.498769,20.310786,-13.074566
-1.589977,-22.747655,-13.121461
-1.589977,-20.379303,-13.394895
-1.589977,-18.100670,-13.411014
-1.589977,-15.878993,-13.263785
-1.589977,-13.686250,-13.033573
-1.589977,-11.499158,-12.787154
-1.589977,-9.299176,-12.577704
-1.589977,-7.072502,-12.444808
-1.589977,-4.810074,-12.414451
-1.589977,-2.507572,-12.499028
-1.589977,-0.165415,-12.697334
-1.589977,2.211237,-12.994572
-1.589977,4.612485,-13.362349
-1.589977,7.023687,-13.758676
-1.589977,9.425463,-14.127971
-1.589977,11.793693,-14.401053
-1.589977,14.099514,-14.495149
-1.589977,16.309326,-14.313890
-1.589977,18.384786,-13.747311
-1.589977,20.282811,-12.671853
-2.681186,-23.105628,-12.992379
-2.681186,-20.671688,-13.407701
-2.681186,-18.347592,-13.507994
-2.681186,-16.095685,-13.401249
-2.681186,-13.883645,-13.180167
-2.681186,-11.684479,-12.922162
-2.681186,-9.476525,-12.689360
-2.681186,-7.243452,-12.528599
-2.681186,-4.974260,-12.471428
-2.681186,-2.663278,-12.534109
-2.681186,-0.310167,-12.717617
-2.681186,2.080082,-13.007637
-2.681186,4.497149,-13.374567
-2.681186,6.925379,-13.773516
-2.681186,9.343791,-14.144308
-2.681186,11.726072,-14.411474
-2.681186,14.040578,-14.484262
-2.681186,16.250334,-14.256629
-2.681186,18.313036,-13.607244
-2.681186,20.181047,-12.399491
-3.772394,-23.450570,-12.939641
-3.772394,-20.964550,-13.471106
-3.772394,-18.606616,-13.635219
-3.772394,-16.334442,-13.553376
-3.772394,-14.111602,-13.330042
-3.772394,-11.907575,-13.052755
-3.772394,-9.697741,-12.792120
-3.772394,-7.463385,-12.601816
-3.772394,-5.191693,-12.518589
-3.772394,-2.875756,-12.562257
-3.772394,-0.514567,-12.735709
-3.772394,1.886980,-13.024904
-3.772394,4.318084,-13.398872
-3.772394,6.762045,-13.809711
-3.772394,9.196257,-14.192592
-3.772394,11.592214,-14.465756
-3.772394,13.915504,-14.530513
-3.772394,16.125815,-14.271246
-3.772394,18.176929,-13.555405
-3.772394,20.016728,-12.233514
-4.863602,-23.752851,-12.938557
-4.863602,-21.230290,-13.557983
-4.863602,-18.851275,-13.765720
-4.863602,-16.569266,-13.695246
-4.863602,-14.344154,-13.461590
-4.863602,-12.142264,-13.161337
-4.863602,-9.936350,-12.872623
-4.863602,-7.705599,-12.655140
-4.863602,-5.435631,-12.550132
-4.863602,-3.118497,-12.580397
-4.863602,-0.752678,-12.750288
-4.863602,1.656910,-13.045709
-4.863602,4.098921,-13.434120
-4.863602,6.555578,-13.864533
-4.863602,9.002670,-14.267515
-4.863602,11.409555,-14.555185
-4.863602,13.739161,-14.621217
-4.863602,15.947981,-14.340838
-4.863602,17.986079,-13.570829
-4.863602,19.797085,-12.149523
-5.954810,-23.983687,-12.978343
-5.954810,-21.442708,-13.653261
-5.954810,-19.056918,-13.883097
-5.954810,-16.776297,-13.811311
-5.954810,-14.557712,-13.561605
-5.954810,-12.364920,-13.237925
-5.954810,-10.168567,-12.924457
-5.954810,-7.946189,-12.685631
-5.954810,-5.682209,-12.566117
-5.954810,-3.367940,-12.590830
-5.954810,-1.001586,-12.764924
-5.954810,1.411762,-13.073798
-5.954810,3.860124,-13.483090
-5.954810,6.324630,-13.938684
-5.954810,8.779522,-14.366702
-5.954810,11.192150,-14.673512
-5.954810,13.522980,-14.745722
-5.954810,15.725584,-14.450183
-5.954810,17.746647,-13.633986
-5.954810,19.525965,-12.124468
-7.046019,-24.117543,-13.055249
-7.046019,-21.578732,-13.748962
-7.046019,-19.201942,-13.977998
-7.046019,-16.934671,-13.892936
-7.046019,-14.731661,-13.623574
-7.046019,-12.554900,-13.278929
-7.046019,-10.373624,-12.947234
-7.046019,-8.164314,-12.695943
-7.046019,-5.910695,-12.571726
-7.046019,-3.603741,-12.600474
-7.046019,-1.241671,-12.787295
-7.046019,1.170050,-13.116514
-7.046019,3.618711,-13.551677
-7.046019,6.084355,-14.035547
-7.046019,8.539779,-14.490105
-7.046019,10.950533,-14.816551
-7.046019,13.274923,-14.895305
-7.046019,15.464006,-14.586001
-7.046019,17.461596,-13.727496
-7.046019,19.204259,-12.137863
-8.137227,-24.134119,-13.166838
-8.137227,-21.619762,-13.840337
-8.137227,-19.268662,-14.045615
-8.137227,-17.027069,-13.936828
-8.137227,-14.848707,-13.646693
-8.137227,-12.694779,-13.286485
-8.137227,-10.533960,-12.946039
-8.137227,-8.342402,-12.693752
-8.137227,-6.103733,-12.576578
-8.137227,-3.809057,-12.620031
-8.137227,-1.456953,-12.828188
-8.137227,0.946523,-13.183681
-8.137227,3.387842,-13.647705
-8.137227,5.845996,-14.160013
-8.137227,8.292504,-14.638920
-8.137227,10.691408,-14.981298
-8.137227,12.999274,-15.062580
-8.137227,15.165192,-14.736760
-8.137227,17.130779,-13.836389
-8.137227,18.830173,-12.172580
-9.228435,-24.019813,-13.307819
-9.228435,-21.552587,-13.923250
-9.228435,-19.243854,-14.084128
-9.228435,-17.040023,-13.944148
-9.228435,-14.895060,-13.635335
-9.228435,-12.770486,-13.268047
-9.228435,-10.635376,-12.930975
-9.228435,-8.466363,-12.691137
-9.228435,-6.247633,-12.593887
-9.228435,-3.970928,-12.662908
-9.228435,-1.635546,-12.900215
-9.228435,0.751661,-13.286154
-9.228435,3.176284,-13.779404
-9.228435,5.616361,-14.316975
-9.228435,8.042372,-14.814206
-9.228435,10.417244,-15.164770
-9.228435,12.696348,-15.240671
-9.228435,14.827499,-14.892244
-9.228435,16.750956,-13.948156
-9.228435,18.399426,-12.215405
-10.319644,-23.768427,-13.467991
-10.319644,-21.369774,-13.993060
-10.319644,-19.118954,-14.094145
-10.319644,-16.964028,-13.920206
-10.319644,-14.860527,-13.598781
-10.319644,-12.771450,-13.235988
-10.319644,-10.667266,-12.916523
-10.319644,-8.525911,-12.703663
-10.319644,-6.332792,-12.639262
-10.319644,-4.080784,-12.743754
-10.319644,-1.770231,-13.016155
-10.319644,0.591055,-13.434055
-10.319644,2.987792,-13.953627
-10.319644,5.397229,-14.509623
-10.319644,7.789145,-15.015372
-10.319644,10.125854,-15.362785
-10.319644,12.362197,-15.422349
-10.319644,14.445547,-15.043133
-10.319644,16.315810,-14.052785
-10.319644,17.905422,-12.257530
-11.410852,-23.381004,-13.632736
-11.410852,-21.069477,-14.045150
-11.410852,-18.889918,-14.079080
-11.410852,-16.793500,-13.874561
-11.410852,-14.738608,-13.550948
-11.410852,-12.690833,-13.206922
-11.410852,-10.622979,-12.920483
-11.410852,-8.515057,-12.748957
-11.410852,-6.354291,-12.728990
-11.410852,-4.135111,-12.876551
-11.410852,-1.859160,-13.186931
-11.410852,0.464711,-13.634746
-11.410852,2.820440,-14.173932
-11.410852,5.184758,-14.737748
-11.410852,7.527183,-15.238776
-11.410852,9.810025,-15.568921
-11.410852,11.988384,-15.599408
-11.410852,14.010150,-15.180789
-11.410852,15.816003,-14.142934
-11.410852,17.339414,-12.295037
-12.502060,-22.864817,-13.785914
-12.502060,-20.654780,-14.076842
-12.502060,-18.556890,-14.046132
-12.502060,-16.526742,-13.821139
-12.502060,-14.526714,-13.509764
-12.502060,-12.525963,-13.200459
-12.502060,-10.500431,-12.962227
-12.502060,-8.432841,-12.844619
-12.502060,-6.312696,-12.877737
-12.502060,-4.136283,-13.072231
-12.502060,-1.906669,-13.419304
-12.502060,0.366295,-13.890706
-12.502060,2.665978,-14.438738
-12.502060,4.968968,-14.996252
-12.502060,7.245067,-15.476646
-12.502060,9.457301,-15.773873
-12.502060,11.561909,-15.762431
-12.502060,13.508351,-15.297371
-12.502060,15.239305,-14.214293
-12.502060,16.690667,-12.329346
-13.593268,-22.231811,-13.914315
-13.593268,-20.132817,-14.089894
-13.593268,-18.123887,-14.007172
-13.593268,-16.166080,-13.777828
-13.593268,-14.226657,-13.495759
-13.593268,-12.279080,-13.237076
-13.593268,-10.303012,-13.060106
-13.593268,-8.284316,-13.005392
-13.593268,-6.215056,-13.095695
-13.593268,-4.093497,-13.335989
-13.593268,-1.924107,-13.713465
-13.593268,0.282449,-14.197531
-13.593268,2.509302,-14.739809
-13.593268,4.733384,-15.274139
-13.593268,6.925425,-15.716575
-13.593268,9.049954,-15.965388
-13.593268,11.065299,-15.901065
-13.593268,12.923589,-15.386308
-13.593268,14.570751,-14.266036
-13.593268,15.946509,-12.367383
-14.684477,-21.497050,-14.012132
-14.684477,-19.514119,-14.092392
-14.684477,-17.598842,-13.978622
-14.684477,-15.718424,-13.764876
-14.684477,-13.845564,-13.529452
-14.684477,-11.958458,-13.334889
-14.684477,-10.040791,-13.227971
-14.684477,-8.081748,-13.239722
-14.684477,-6.076004,-13.385409
-14.684477,-4.023731,-13.664542
-14.684477,-1.930593,-14.060875
-14.684477,0.192250,-14.542402
-14.684477,2.328145,-15.061362
-14.684477,4.454944,-15.554234
-14.684477,6.545005,-15.941742
-14.684477,8.565192,-16.128852
-14.684477,10.476874,-16.004770
-14.684477,12.235926,-15.442949
-14.684477,13.792730,-14.301081
-14.684477,15.092172,-12.421103
-15.775685,-20.677813,-14.083540
-15.775685,-18.812651,-14.098628
-15.775685,-16.994318,-13.979411
-15.775685,-15.196424,-13.801573
-15.775685,-13.397278,-13.627324
-15.775685,-11.579890,-13.505395
-15.775685,-9.731967,-13.471042
-15.775685,-7.845915,-13.546040
-15.775685,-5.918841,-13.738690
-15.775685,-3.952550,-14.043814
-15.775685,-1.953546,-14.442757
-15.775685,0.066967,-14.903388
-15.775685,2.093085,-15.380095
-15.775685,4.104207,-15.813794
-15.775685,6.075031,-16.131919
-15.775685,7.975557,-16.248429
-15.775685,9.771085,-16.063805
-15.775685,11.422216,-15.465052
-15.775685,12.884851,-14.325696
-15.775685,14.110193,-12.505786
-16.866893,-19.793973,-14.141626
-16.866893,-18.046930,-14.125906
-16.866893,-16.329082,-14.026455
-16.866893,-14.620269,-13.901093
-16.866893,-12.904191,-13.796566
-16.866893,-11.168409,-13.748550
-16.866893,-9.404345,-13.781647
-16.866893,-7.607280,-13.909389
-16.866893,-5.776358,-14.134233
-16.866893,-3.914581,-14.447568
-16.866893,-2.028814,-14.829709
-16.866893,-0.129780,-15.249897
-16.866893,1.767935,-15.666305
-16.866893,3.645888,-16.026032
-16.866893,5.481771,-16.265105
-16.866893,7.249419,-16.308479
-16.866893,8.918804,-16.070038
-16.866893,10.456039,-15.452593
-16.866893,11.823377,-14.347883
-16.866893,12.979209,-12.636576
-17.958101,-18.869953,-14.202756
-17.958101,-17.242322,-14.187949
-17.958101,-15.630489,-14.127833
-17.958101,-14.019956,-14.063989
-17.958101,-12.399251,-14.029317
-17.958101,-10.759928,-14.048041
-17.958101,-9.096569,-14.135701
-17.958101,-7.406781,-14.299160
-17.958101,-5.691197,-14.536600
-17.958101,-3.953478,-14.837524
-17.958101,-2.200311,-15.182754
-17.958101,-0.441408,-15.544433
-17.958101,1.310492,-15.886025
-17.958101,3.039621,-16.162313
-17.958101,4.727187,-16.319401
-17.958101,6.351373,-16.294712
-17.958101,7.887332,-16.016991
-17.958101,9.307193,-15.406301
-17.958101,10.580058,-14.374028
-17.958101,11.672002,-12.822875
-19.049310,-17.938144,-14.276794
-19.049310,-16.434220,-14.285784
-19.049310,-14.937274,-14.274761
-19.049310,-13.437598,-14.271568
-19.049310,-11.927726,-14.297615
-19.049310,-10.402439,-14.367875
-19.049310,-8.858759,-14.490884
-19.049310,-7.295954,-14.668743
-19.049310,-5.715536,-14.897117
-19.049310,-4.121260,-15.165235
-19.049310,-2.519127,-15.455888
-19.049310,-0.917379,-15.745434
-19.049310,0.673494,-16.003792
-19.049310,2.240760,-16.194448
-19.049310,3.769444,-16.274448
-19.049310,5.242325,-16.194406
-19.049310,6.639938,-15.898498
-19.049310,7.940575,-15.324463
-19.049310,9.120284,-14.403606
-19.049310,10.152867,-13.060794
-20.140518,-17.043051,-14.355197
-20.140518,-15.671405,-14.398102
-20.140518,-14.302100,-14.434295
-20.140518,-12.929167,-14.480892
-20.140518,-11.548194,-14.550548
-20.140518,-10.156323,-14.651460
-20.140518,-8.752250,-14.787367
-20.140518,-7.336227,-14.957548
-20.140518,-5.910058,-15.156825
-20.140518,-4.477105,-15.375559
-20.140518,-3.042283,-15.599655
-20.140518,-1.612061,-15.810556
-20.140518,-0.194464,-15.985250
-20.140518,1.200930,-16.096264
-20.140518,2.562986,-16.111667
-20.140518,3.879016,-15.995069
-20.140518,5.134778,-15.705621
-20.140518,6.314474,-15.198016
-20.140518,7.400751,-14.422488
-20.140518,8.374703,-13.324812
-21.231726,-16.245056,-14.400225
-21.231726,-15.018607,-14.473920
-21.231726,-13.793042,-14.545077
-21.231726,-12.565059,-14.623169
-21.231726,-11.332342,-14.714839
-21.231726,-10.093563,-14.823893
-21.231726,-8.848385,-14.951302
-21.231726,-7.597456,-15.095204
-21.231726,-6.342414,-15.250900
-21.231726,-5.085887,-15.410859
-21.231726,-3.831487,-15.564714
-21.231726,-2.583819,-15.699264
-21.231726,-1.348473,-15.798473
-21.231726,-0.132030,-15.843470
-21.231726,1.057943,-15.812550
-21.231726,2.212890,-15.681174
-21.231726,3.323264,-15.421966
-21.231726,4.378534,-15.004719
-21.231726,5.367177,-14.396388
-21.231726,6.276685,-13.561096
0.000000,-14.683014,13.069531
0.000000,-12.751150,13.058117
0.000000,-10.819286,12.765022
0.000000,-8.887423,12.303900
0.000000,-6.955559,11.767257
0.000000,-5.023695,11.227906
0.000000,-3.091831,10.740414
0.000000,-1.159967,10.342563
0.000000,0.771897,10.056796
0.000000,2.703761,9.891670
0.000000,4.635625,9.843315
0.000000,6.567488,9.896876
0.000000,8.499352,10.027975
0.000000,10.431216,10.204160
0.000000,12.363080,10.386355
0.000000,14.294944,10.530318
0.000000,16.226808,10.588088
0.000000,18.158672,10.509442
0.000000,20.090536,10.243345
0.000000,22.022399,9.739403
-1.143710,-17.434968,12.340895
-1.143710,-15.329172,13.016054
-1.143710,-13.223376,13.132085
-1.143710,-11.117580,12.875175
-1.143710,-9.011785,12.398836
-1.143710,-6.905989,11.826136
-1.143710,-4.800193,11.251937
-1.143710,-2.694397,10.745129
-1.143710,-0.588601,10.350864
-1.143710,1.517194,10.092795
-1.143710,3.622990,9.975309
-1.143710,5.728786,9.985761
-1.143710,7.834582,10.096713
-1.143710,9.940378,10.268166
-1.143710,12.046173,10.449795
-1.143710,14.151969,10.583188
-1.143710,16.257765,10.604077
-1.143710,18.363561,10.444577
-1.143710,20.469357,10.035419
-1.143710,22.575152,9.308185
-2.287421,-18.194492,12.030849
-2.287421,-16.036603,12.958005
-2.287421,-13.878713,13.226219
-2.287421,-11.720824,13.048509
-2.287421,-9.562935,12.600792
-2.287421,-7.405046,12.024415
-2.287421,-5.247157,11.428676
-2.287421,-3.089268,10.893350
-2.287421,-0.931379,10.471220
-2.287421,1.226511,10.190595
-2.287421,3.384400,10.057842
-2.287421,5.542289,10.059909
-2.287421,7.700178,10.166853
-2.287421,9.858067,10.334361
-2.287421,12.015956,10.506282
-2.287421,14.173845,10.617148
-2.287421,16.331735,10.594703
-2.287421,18.489624,10.362427
-2.287421,20.647513,9.842062
-2.287421,22.805402,8.956137
-3.431131,-18.176630,12.227512
-3.431131,-16.020090,13.108118
-3.431131,-13.863551,13.338212
-3.431131,-11.707011,13.130631
-3.431131,-9.550472,12.660930
-3.431131,-7.393932,12.069891
-3.431131,-5.237393,11.466047
-3.431131,-3.080853,10.928200
-3.431131,-0.924314,10.507935
-3.431131,1.232226,10.232138
-3.431131,3.388765,10.105520
-3.431131,5.545305,10.113129
-3.431131,7.701844,10.222867
-3.431131,9.858384,10.388015
-3.431131,12.014923,10.549743
-3.431131,14.171463,10.639634
-3.431131,16.328002,10.582198
-3.431131,18.484542,10.297390
-3.431131,20.641081,9.703132
-3.431131,22.797620,8.717825
-4.574841,-18.089187,12.509380
-4.574841,-15.946457,13.299472
-4.574841,-13.803727,13.464058
-4.574841,-11.660998,13.210978
-4.574841,-9.518268,12.711508
-4.574841,-7.375538,12.102801
-4.574841,-5.232809,11.490322
-4.574841,-3.090079,10.950288
-4.574841,-0.947349,10.532107
-4.574841,1.195380,10.260815
-4.574841,3.338110,10.139513
-4.574841,5.480840,10.151810
-4.574841,7.623569,10.264257
-4.574841,9.766299,10.428787
-4.574841,11.909029,10.585152
-4.574841,14.051758,10.663363
-4.574841,16.194488,10.586129
-4.574841,18.337217,10.271292
-4.574841,20.479947,9.634269
-4.574841,22.622677,8.590486
-5.718551,-18.263509,12.669819
-5.718551,-16.126596,13.451532
-5.718551,-13.989683,13.603346
-5.718551,-11.852770,13.334635
-5.718551,-9.715857,12.818108
-5.718551,-7.578944,12.192215
-5.718551,-5.442031,11.563552
-5.718551,-3.305118,11.009267
-5.718551,-1.168205,10.579466
-5.718551,0.968708,10.299616
-5.718551,3.105621,10.172953
-5.718551,5.242533,10.182886
-5.718551,7.379446,10.295402
-5.718551,9.516359,10.461475
-5.718551,11.653272,10.619466
-5.718551,13.790185,10.697530
-5.718551,15.927098,10.616026
-5.718551,18.064011,10.289916
-5.718551,20.200924,9.631173
-5.718551,22.337837,8.551188
-6.862262,-18.768933,12.648116
-6.862262,-16.623897,13.538253
-6.862262,-14.478860,13.752433
-6.862262,-12.333823,13.511166
-6.862262,-10.188787,12.996886
-6.862262,-8.043750,12.356402
-6.862262,-5.898713,11.703350
-6.862262,-3.753677,11.120644
-6.862262,-1.608640,10.662929
-6.862262,0.536397,10.359030
-6.862262,2.681433,10.214406
-6.862262,4.826470,10.213599
-6.862262,6.971507,10.322688
-6.862262,9.116543,10.491738
-6.862262,11.261580,10.657254
-6.862262,13.406617,10.744630
-6.862262,15.551653,10.670603
-6.862262,17.696690,10.345702
-6.862262,19.841727,9.676700
-6.862262,21.986763,8.569069
-8.005972,-19.510913,12.432887
-8.005972,-17.347207,13.537175
-8.005972,-15.183500,13.884075
-8.005972,-13.019793,13.713149
-8.005972,-10.856086,13.223402
-8.005972,-8.692379,12.575844
-8.005972,-6.528672,11.896052
-8.005972,-4.364965,11.276727
-8.005972,-2.201259,10.780256
-8.005972,-0.037552,10.441270
-8.005972,2.126155,10.269206
-8.005972,4.289862,10.250867
-8.005972,6.453569,10.352982
-8.005972,8.617276,10.524762
-8.005972,10.780983,10.700468
-8.005972,12.944689,10.801963
-8.005972,15.108396,10.741277
-8.005972,17.272103,10.423166
-8.005972,19.435810,9.747672
-8.005972,21.599517,8.612680
-9.149682,-20.312810,12.071986
-9.149682,-18.128317,13.446757
-9.149682,-15.943824,13.967441
-9.149682,-13.759331,13.895588
-9.149682,-11.574838,13.449365
-9.149682,-9.390346,12.806237
-9.149682,-7.205853,12.105658
-9.149682,-5.021360,11.451754
-9.149682,-2.836867,10.916006
-9.149682,-0.652374,10.539939
-9.149682,1.532119,10.337806
-9.149682,3.716611,10.299274
-9.149682,5.901104,10.392106
-9.149682,8.085597,10.564851
-9.149682,10.270090,10.749529
-9.149682,12.454583,10.864312
-9.149682,14.639075,10.816213
-9.149682,16.823568,10.503773
-9.149682,19.008061,9.819741
-9.149682,21.192554,8.653763
-10.293393,-20.981359,11.704827
-10.293393,-18.783986,13.319155
-10.293393,-16.586613,13.998644
-10.293393,-14.389240,14.022481
-10.293393,-12.191867,13.624307
-10.293393,-9.994494,12.994981
-10.293393,-7.797121,12.285345
-10.293393,-5.599748,11.608991
-10.293393,-3.402375,11.045028
-10.293393,-1.205002,10.640843
-10.293393,0.992371,10.414870
-10.293393,3.189744,10.359355
-10.293393,5.387118,10.443119
-10.293393,7.584491,10.614328
-10.293393,9.781864,10.803254
-10.293393,11.979237,10.925044
-10.293393,14.176610,10.882483
-10.293393,16.373983,10.568761
-10.293393,18.571356,9.870236
-10.293393,20.768729,8.669205
-11.437103,-21.355812,11.524833
-11.437103,-19.162491,13.247325
-11.437103,-16.969169,14.003736
-11.437103,-14.775848,14.078956
-11.437103,-12.582527,13.711867
-11.437103,-10.389206,13.098083
-11.437103,-8.195884,12.392686
-11.437103,-6.002563,11.712973
-11.437103,-3.809242,11.141191
-11.437103,-1.615920,10.727278
-11.437103,0.577401,10.491606
-11.437103,2.770722,10.427716
-11.437103,4.964043,10.505062
-11.437103,7.157365,10.671751
-11.437103,9.350686,10.857280
-11.437103,11.544007,10.975281
-11.437103,13.737329,10.926255
-11.437103,15.930650,10.600317
-11.437103,18.123971,9.879936
-11.437103,20.317292,8.642669
-12.580813,-21.340743,11.659953
-12.580813,-19.174710,13.295312
-12.580813,-17.008676,14.004070
-12.580813,-14.842643,14.060049
-12.580813,-12.676609,13.692958
-12.580813,-10.510576,13.090970
-12.580813,-8.344542,12.403292
-12.580813,-6.178509,11.742740
-12.580813,-4.012475,11.188315
-12.580813,-1.846442,10.787774
-12.580813,0.319592,10.560207
-12.580813,2.485625,10.498606
-12.580813,4.651659,10.572444
-12.580813,6.817692,10.730245
-12.580813,8.983726,10.902161
-12.580813,11.149759,11.002543
-12.580813,13.315793,10.932517
-12.580813,15.481826,10.582555
-12.580813,17.647860,9.835053
-12.580813,19.813893,8.566901
-13.724523,-20.922534,12.066955
-13.724523,-18.809739,13.433470
-13.724523,-16.696944,13.980742
-13.724523,-14.584148,13.955027
-13.724523,-12.471353,13.562709
-13.724523,-10.358558,12.972574
-13.724523,-8.245763,12.318082
-13.724523,-6.132967,11.699638
-13.724523,-4.020172,11.186867
-13.724523,-1.907377,10.820886
-13.724523,0.205418,10.616577
-13.724523,2.318214,10.564857
-13.724523,4.431009,10.634956
-13.724523,6.543804,10.776683
-13.724523,8.656599,10.922706
-13.724523,10.769395,10.990817
-13.724523,12.882190,10.886213
-13.724523,14.994985,10.503761
-13.724523,17.107780,9.730276
-13.724523,19.220575,8.446790
-14.868234,-20.169525,12.549611
-14.868234,-18.135035,13.551484
-14.868234,-16.100545,13.883363
-14.868234,-14.066055,13.752738
-14.868234,-12.031565,13.333132
-14.868234,-9.997076,12.765986
-14.868234,-7.962586,12.162538
-14.868234,-5.928096,11.605705
-14.868234,-3.893606,11.151964
-14.868234,-1.859116,10.833235
-14.868234,0.175374,10.658762
-14.868234,2.209863,10.616993
-14.868234,4.244353,10.677466
-14.868234,6.278843,10.792684
-14.868234,8.313333,10.900004
-14.868234,10.347823,10.923513
-14.868234,12.382312,10.775912
-14.868234,14.416802,10.360397
-14.868234,16.451292,9.572542
-14.868234,18.485782,8.302178
-16.011944,-19.215842,12.892091
-16.011944,-17.281095,13.541576
-16.011944,-15.346348,13.676839
-16.011944,-13.411601,13.463058
-16.011944,-11.476854,13.038015
-16.011944,-9.542107,12.513548
-16.011944,-7.607360,11.977023
-16.011944,-5.672613,11.492795
-16.011944,-3.737866,11.103671
-16.011944,-1.803119,10.832372
-16.011944,0.131628,10.683000
-16.011944,2.066375,10.642498
-16.011944,4.001122,10.682115
-16.011944,5.935869,10.758871
-16.011944,7.870616,10.817016
-16.011944,9.805363,10.789499
-16.011944,11.740110,10.599426
-16.011944,13.674857,10.161528
-16.011944,15.609605,9.383622
-16.011944,17.544352,8.168075
-17.155654,-18.228896,12.983363
-17.155654,-16.410664,13.368206
-17.155654,-14.592431,13.372993
-17.155654,-12.774199,13.123639
-17.155654,-10.955966,12.724984
-17.155654,-9.137734,12.261856
-17.155654,-7.319501,11.800152
-17.155654,-5.501269,11.387909
-17.155654,-3.683037,11.056373
-17.155654,-1.864804,10.821075
-17.155654,-0.046572,10.682905
-17.155654,1.771661,10.629180
-17.155654,3.589893,10.634722
-17.155654,5.408126,10.662928
-17.155654,7.226358,10.666841
-17.155654,9.044591,10.590228
-17.155654,10.862823,10.368647
-17.155654,12.681055,9.930524
-17.155654,14.499288,9.198225
-17.155654,16.317520,8.089125
-18.299364,-17.360550,12.835325
-18.299364,-15.672472,13.064429
-18.299364,-13.984395,13.014226
-18.299364,-12.296317,12.777781
-18.299364,-10.608240,12.432650
-18.299364,-8.920163,12.041624
-18.299364,-7.232085,11.653466
-18.299364,-5.544008,11.303654
-18.299364,-3.855930,11.015117
-18.299364,-2.167853,10.798978
-18.299364,-0.479775,10.655293
-18.299364,1.208302,10.573791
-18.299364,2.896379,10.534615
-18.299364,4.584457,10.509058
-18.299364,6.272534,10.460310
-18.299364,7.960612,10.344190
-18.299364,9.648689,10.109893
