-5.743818,-18.401671,-4.638110
-5.743818,-18.241877,-3.126947
-5.743818,-18.075963,-1.615783
-5.743818,-17.903930,-0.104620
-5.743818,-17.725777,1.406543
-5.743818,-17.541505,2.917707
-5.743818,-17.351113,4.428870
-5.743818,-17.154602,5.940034
-5.743818,-16.951972,7.451197
-5.743818,-16.743221,8.962360
-5.743818,-16.528352,10.473524
-4.792043,-19.026146,-12.193927
-4.792043,-18.883074,-10.682764
-4.792043,-18.733883,-9.171600
-4.792043,-18.578573,-7.660437
-4.792043,-18.417142,-6.149273
-4.792043,-18.249593,-4.638110
-4.792043,-18.075924,-3.126947
-4.792043,-17.896135,-1.615783
-4.792043,-17.710227,-0.104620
-4.792043,-17.518200,1.406543
-4.792043,-17.320052,2.917707
-4.792043,-17.115786,4.428870
-4.792043,-16.905400,5.940034
-4.792043,-16.688894,7.451197
-4.792043,-16.466269,8.962360
-4.792043,-16.237525,10.473524
-3.840268,-18.922163,-12.193927
-3.840268,-18.765216,-10.682764
-3.840268,-18.602150,-9.171600
-3.840268,-18.432965,-7.660437
-3.840268,-18.257660,-6.149273
-3.840268,-18.076235,-4.638110
-3.840268,-17.888691,-3.126947
-3.840268,-17.695028,-1.615783
-3.840268,-17.495245,-0.104620
-3.840268,-17.289343,1.406543
-3.840268,-17.077321,2.917707
-3.840268,-16.859179,4.428870
-3.840268,-16.634918,5.940034
-3.840268,-16.404538,7.451197
-3.840268,-16.168038,8.962360
-3.840268,-15.925418,10.473524
-2.888494,-18.796901,-12.193927
-2.888494,-18.626079,-10.682764
-2.888494,-18.449138,-9.171600
-2.888494,-18.266078,-7.660437
-2.888494,-18.076898,-6.149273
-2.888494,-17.881599,-4.638110
-2.888494,-17.680180,-3.126947
-2.888494,-17.472641,-1.615783
-2.888494,-17.258984,-0.104620
-2.888494,-17.039206,1.406543
-2.888494,-16.813309,2.917707
-2.888494,-16.581293,4.428870
-2.888494,-16.343157,5.940034
-2.888494,-16.098902,7.451197
-2.888494,-15.848527,8.962360
-2.888494,-15.592033,10.473524
-1.936719,-18.650359,-12.193927
-1.936719,-18.465663,-10.682764
-1.936719,-18.274847,-9.171600
-1.936719,-18.077912,-7.660437
-1.936719,-17.874857,-6.149273
-1.936719,-17.665683,-4.638110
-1.936719,-17.450389,-3.126947
-1.936719,-17.228976,-1.615783
-1.936719,-17.001443,-0.104620
-1.936719,-16.767791,1.406543
-1.936719,-16.528019,2.917707
-1.936719,-16.282128,4.428870
-1.936719,-16.030117,5.940034
-1.936719,-15.771987,7.451197
-1.936719,-15.507737,8.962360
-1.936719,-15.237368,10.473524
-0.984945,-18.482538,-12.193927
-0.984945,-18.283967,-10.682764
-0.984945,-18.079276,-9.171600
-0.984945,-17.868466,-7.660437
-0.984945,-17.651537,-6.149273
-0.984945,-17.428488,-4.638110
-0.984945,-17.199319,-3.126947
-0.984945,-16.964031,-1.615783
-0.984945,-16.722623,-0.104620
-0.984945,-16.475096,1.406543
-0.984945,-16.221450,2.917707
-0.984945,-15.961683,4.428870
-0.984945,-15.695798,5.940034
-0.984945,-15.423793,7.451197
-0.984945,-15.145668,8.962360
-0.984945,-14.861424,10.473524
-0.033170,-18.293438,-12.193927
-0.033170,-18.080992,-10.682764
-0.033170,-17.862427,-9.171600
-0.033170,-17.637742,-7.660437
-0.033170,-17.406937,-6.149273
-0.033170,-17.170013,-4.638110
-0.033170,-16.926970,-3.126947
-0.033170,-16.677807,-1.615783
-0.033170,-16.422524,-0.104620
-0.033170,-16.161122,1.406543
-0.033170,-15.893601,2.917707
-0.033170,-15.619960,4.428870
-0.033170,-15.340199,5.940034
-0.033170,-15.054319,7.451197
-0.033170,-14.762320,8.962360
-0.033170,-14.464201,10.473524
-8.159840,-17.806454,-12.193927
-12.814377,-17.832042,-10.682764
-15.538402,-17.854571,-9.171600
-16.984251,-17.874039,-7.660437
-17.645609,-17.890449,-6.149273
-17.878114,-17.903798,-4.638110
-17.919955,-17.914088,-3.126947
-17.912477,-17.921317,-1.615783
-17.920779,-17.925488,-0.104620
-17.954317,-17.926598,1.406543
-17.987508,-17.924649,2.917707
-17.980327,-17.919640,4.428870
-17.898908,-17.911571,5.940034
-17.736151,-17.900442,7.451197
-17.532318,-17.886254,8.962360
-17.395637,-17.869006,10.473524
-0.555107,-19.988223,-12.614955
-0.555107,-17.945086,-12.713550
-0.555107,-15.962938,-12.627207
-0.555107,-14.016927,-12.431290
-0.555107,-12.085904,-12.189922
-0.555107,-10.152430,-11.955991
-0.555107,-8.202767,-11.771144
-0.555107,-6.226888,-11.665794
-0.555107,-4.218468,-11.659115
-0.555107,-2.174891,-11.759042
-0.555107,-0.097245,-11.962275
-0.555107,2.009675,-12.254273
-0.555107,4.137368,-12.609261
-0.555107,6.273628,-12.990223
-0.555107,8.402540,-13.348908
-0.555107,10.504487,-13.625826
-0.555107,12.556143,-13.750249
-0.555107,14.530477,-13.640213
-0.555107,16.396751,-13.202514
-0.555107,18.120524,-12.332713
-1.769571,-20.294607,-12.376948
-1.769571,-18.181652,-12.634867
-1.769571,-16.148741,-12.650072
-1.769571,-14.166644,-12.511196
-1.769571,-12.210361,-12.294047
-1.769571,-10.259119,-12.061609
-1.769571,-8.296377,-11.864044
-1.769571,-6.309822,-11.738688
-1.769571,-4.291368,-11.710054
-1.769571,-2.237162,-11.789831
-1.769571,-0.147577,-11.976885
-1.769571,1.972783,-12.257258
-1.769571,4.115086,-12.604168
-1.769571,6.266271,-12.978007
-1.769571,8.409046,-13.326348
-1.769571,10.521892,-13.583935
-1.769571,12.579060,-13.672692
-1.769571,14.550571,-13.501718
-1.769571,16.402219,-12.967287
-1.769571,18.095566,-11.952851
-2.984035,-20.613977,-12.255189
-2.984035,-18.442508,-12.646946
-2.984035,-16.369036,-12.741549
-2.984035,-14.359969,-12.640860
-2.984035,-12.386469,-12.432322
-2.984035,-10.424455,-12.188957
-2.984035,-8.454601,-11.969364
-2.984035,-6.462337,-11.817724
-2.984035,-4.437849,-11.763797
-2.984035,-2.376077,-11.822922
-2.984035,-0.276719,-11.996018
-2.984035,1.855772,-12.269582
-2.984035,4.012188,-12.615692
-2.984035,6.178564,-12.992005
-2.984035,8.336182,-13.341758
-2.984035,10.461564,-13.593765
-2.984035,12.526479,-13.662423
-2.984035,14.497941,-13.447706
-2.984035,16.338206,-12.835167
-2.984035,18.004776,-11.695942
-4.198500,-20.921722,-12.205444
-4.198500,-18.703788,-12.706754
-4.198500,-16.600128,-12.861555
-4.198500,-14.572979,-12.784355
-4.198500,-12.589844,-12.573694
-4.198500,-10.623493,-12.312140
-4.198500,-8.651962,-12.066294
-4.198500,-6.658553,-11.886787
-4.198500,-4.631835,-11.808282
-4.198500,-2.565642,-11.849473
-4.198500,-0.459077,-12.013084
-4.198500,1.683493,-12.285870
-4.198500,3.852433,-12.638618
-4.198500,6.032844,-13.026146
-4.198500,8.204557,-13.387303
-4.198500,10.342140,-13.644967
-4.198500,12.414893,-13.706050
-4.198500,14.386849,-13.461493
-4.198500,16.216777,-12.786270
-4.198500,17.858177,-11.539383
-5.412964,-21.191406,-12.204422
-5.412964,-18.940871,-12.788701
-5.412964,-16.818403,-12.984651
-5.412964,-14.782480,-12.918176
-5.412964,-12.797318,-12.697778
-5.412964,-10.832874,-12.414561
-5.412964,-8.864840,-12.142229
-5.412964,-6.874648,-11.937085
-5.412964,-4.849467,-11.838035
-5.412964,-2.782206,-11.866584
-5.412964,-0.671512,-12.026835
-5.412964,1.478233,-12.305494
-5.412964,3.656904,-12.671866
-5.412964,5.848641,-13.077858
-5.412964,8.031845,-13.457974
-5.412964,10.179179,-13.729322
-5.412964,12.257566,-13.791607
-5.412964,14.228192,-13.527137
-5.412964,16.046507,-12.800818
-5.412964,17.662219,-11.460158
-6.627428,-21.397349,-12.241951
-6.627428,-19.130383,-12.878573
-6.627428,-17.001870,-13.095368
-6.627428,-14.967185,-13.027655
-6.627428,-12.987846,-12.792118
-6.627428,-11.031519,-12.486803
-6.627428,-9.072015,-12.191122
-6.627428,-7.089292,-11.965847
-6.627428,-5.069454,-11.853114
-6.627428,-3.004751,-11.876425
-6.627428,-0.893578,-12.040641
-6.627428,1.259521,-12.331989
-6.627428,3.443858,-12.718058
-6.627428,5.642599,-13.147801
-6.627428,7.832761,-13.551534
-6.627428,9.985218,-13.840936
-6.627428,12.064697,-13.909048
-6.627428,14.029778,-13.630278
-6.627428,15.832895,-12.860392
-6.627428,17.420336,-11.436524
-7.841892,-21.516770,-12.314492
-7.841892,-19.251738,-12.968844
-7.841892,-17.131255,-13.184884
-7.841892,-15.108481,-13.104649
-7.841892,-13.143037,-12.850571
-7.841892,-11.201013,-12.525481
-7.841892,-9.254960,-12.212606
-7.841892,-7.283895,-11.975573
-7.841892,-5.273301,-11.858405
-7.841892,-3.215123,-11.885522
-7.841892,-1.107772,-12.061742
-7.841892,1.043875,-12.372281
-7.841892,3.228479,-12.782753
-7.841892,5.428234,-13.239168
-7.841892,7.618872,-13.667934
-7.841892,9.769657,-13.975858
-7.841892,11.843390,-14.050143
-7.841892,13.796408,-13.758390
-7.841892,15.578583,-12.948596
-7.841892,17.133322,-11.449159
-9.056356,-21.531559,-12.419750
-9.056356,-19.288344,-13.055035
-9.056356,-17.190780,-13.248665
-9.056356,-15.190914,-13.146051
-9.056356,-13.247462,-12.872378
-9.056356,-11.325807,-12.532608
-9.056356,-9.398005,-12.211479
-9.056356,-7.442779,-11.973507
-9.056356,-5.445522,-11.862981
-9.056356,-3.398298,-11.903969
-9.056356,-1.299839,-12.100315
-9.056356,0.844453,-12.435637
-9.056356,3.022506,-12.873332
-9.056356,5.215579,-13.356572
-9.056356,7.398262,-13.808306
-9.056356,9.538474,-14.131257
-9.056356,11.597466,-14.207928
-9.056356,13.529818,-13.900594
-9.056356,15.283441,-13.051310
-9.056356,16.799576,-11.481906
-10.270820,-21.429579,-12.552731
-10.270820,-19.228413,-13.133243
-10.270820,-17.168648,-13.284993
-10.270820,-15.202472,-13.152955
-10.270820,-13.288816,-12.861664
-10.270820,-11.393350,-12.515217
-10.270820,-9.488485,-12.197269
-10.270820,-7.553373,-11.971040
-10.270820,-5.573905,-11.879308
-10.270820,-3.542714,-11.944413
-10.270820,-1.459173,-12.168255
-10.270820,0.670603,-12.532296
-10.270820,2.833762,-12.997559
-10.270820,5.010707,-13.504628
-10.270820,7.175104,-13.973646
-10.270820,9.293876,-14.304319
-10.270820,11.327207,-14.375913
-10.270820,13.228540,-14.047256
-10.270820,14.944577,-13.156736
-10.270820,16.415280,-11.522301
-11.485285,-21.205302,-12.703815
-11.485285,-19.065313,-13.199092
-11.485285,-17.057216,-13.294441
-11.485285,-15.134672,-13.130372
-11.485285,-13.258007,-12.827185
-11.485285,-11.394211,-12.484976
-11.485285,-9.516936,-12.183638
-11.485285,-7.606499,-11.982855
-11.485285,-5.649881,-11.922108
-11.485285,-3.640723,-12.020672
-11.485285,-1.579334,-12.277616
-11.485285,0.527318,-12.671805
-11.485285,2.665596,-13.161897
-11.485285,4.815206,-13.686345
-11.485285,6.949185,-14.163398
-11.485285,9.033909,-14.491098
-11.485285,11.029090,-14.547283
-11.485285,12.887778,-14.189584
-11.485285,14.556356,-13.255428
-11.485285,15.974548,-11.562036
-12.699749,-20.859658,-12.859213
-12.699749,-18.797400,-13.248227
-12.699749,-16.852879,-13.280231
-12.699749,-14.982533,-13.087316
-12.699749,-13.149235,-12.782066
-12.699749,-11.322287,-12.457559
-12.699749,-9.477425,-12.187374
-12.699749,-7.596816,-12.025580
-12.699749,-5.669061,-12.006745
-12.699749,-3.689192,-12.145934
-12.699749,-1.658673,-12.438703
-12.699749,0.414597,-12.861109
-12.699749,2.516291,-13.369701
-12.699749,4.625647,-13.901526
-12.699749,6.715472,-14.374126
-12.699749,8.752138,-14.685538
-12.699749,10.695588,-14.714296
-12.699749,12.499332,-14.319429
-12.699749,14.110447,-13.340462
-12.699749,15.469577,-11.597415
-13.914213,-20.399135,-13.003700
-13.914213,-18.427423,-13.278120
-13.914213,-16.555764,-13.249153
-13.914213,-14.744542,-13.036926
-13.914213,-12.960191,-12.743218
-13.914213,-11.175196,-12.451464
-13.914213,-9.368093,-12.226749
-13.914213,-7.523466,-12.115814
-13.914213,-5.631952,-12.147052
-13.914213,-3.690237,-12.330511
-13.914213,-1.701059,-12.657891
-13.914213,0.326795,-13.102546
-13.914213,2.378486,-13.619483
-13.914213,4.433127,-14.145362
-13.914213,6.463778,-14.598499
-13.914213,8.437450,-14.878861
-13.914213,10.315103,-14.868068
-13.914213,12.051646,-14.429396
-13.914213,13.595938,-13.407772
-13.914213,14.890789,-11.629777
-15.128677,-19.834391,-13.124815
-15.128677,-17.961747,-13.290432
-15.128677,-16.169454,-13.212403
-15.128677,-14.422772,-12.996073
-15.128677,-12.692492,-12.730008
-15.128677,-10.954936,-12.486002
-15.128677,-9.191962,-12.319074
-15.128677,-7.390957,-12.267465
-15.128677,-5.544840,-12.352643
-15.128677,-3.652065,-12.579303
-15.128677,-1.716616,-12.935361
-15.128677,0.251991,-13.391961
-15.128677,2.238706,-13.903471
-15.128677,4.222948,-14.407482
-15.128677,6.178605,-14.824815
-15.128677,8.074030,-15.059510
-15.128677,9.872046,-14.998837
-15.128677,11.529943,-14.513287
-15.128677,12.999479,-13.456580
-15.128677,14.226880,-11.665657
-16.343141,-19.178864,-13.217082
-16.343141,-17.409767,-13.292788
-16.343141,-15.701029,-13.185473
-16.343141,-14.023390,-12.983855
-16.343141,-12.352495,-12.761789
-16.343141,-10.668889,-12.578266
-16.343141,-8.958019,-12.477414
-16.343141,-7.210234,-12.488498
-16.343141,-5.420784,-12.625919
-16.343141,-3.589822,-12.889214
-16.343141,-1.722403,-13.263059
-16.343141,0.171518,-13.717264
-16.343141,2.077084,-14.206778
-16.343141,3.974535,-14.671685
-16.343141,5.839209,-15.037206
-16.343141,7.641544,-15.213698
-16.343141,9.347075,-15.096658
-16.343141,10.916436,-14.566714
-16.343141,12.305358,-13.489636
-16.343141,13.464672,-11.716328
-17.557606,-18.447972,-13.284438
-17.557606,-16.783944,-13.298670
-17.557606,-15.161695,-13.186217
-17.557606,-13.557681,-13.018470
-17.557606,-11.952551,-12.854108
-17.557606,-10.331145,-12.739097
-17.557606,-8.682497,-12.706693
-17.557606,-6.999832,-12.777436
-17.557606,-5.280569,-12.959155
-17.557606,-3.526317,-13.246966
-17.557606,-1.742881,-13.623273
-17.557606,0.059745,-14.057767
-17.557606,1.867372,-14.507427
-17.557606,3.661620,-14.916517
-17.557606,5.419916,-15.216591
-17.557606,7.115494,-15.326491
-17.557606,8.717397,-15.152343
-17.557606,10.190474,-14.587563
-17.557606,11.495382,-13.512854
-17.557606,12.588587,-11.796206
-18.772070,-17.659443,-13.339229
-18.772070,-16.100797,-13.324400
-18.772070,-14.568197,-13.230592
-18.772070,-13.043658,-13.112343
-18.772070,-11.512637,-13.013747
-18.772070,-9.964037,-12.968456
-18.772070,-8.390205,-12.999675
-18.772070,-6.786931,-13.120168
-18.772070,-5.153451,-13.332255
-18.772070,-3.492443,-13.627812
-18.772070,-1.810032,-13.988269
-18.772070,-0.115785,-14.384616
-18.772070,1.577286,-14.777397
-18.772070,3.252725,-15.116713
-18.772070,4.890631,-15.342221
-18.772070,6.467660,-15.383134
-18.772070,7.957023,-15.158222
-18.772070,9.328488,-14.575811
-18.772070,10.548375,-13.533782
-18.772070,11.579566,-11.919575
-19.986534,-16.835067,-13.396890
-19.986534,-15.382955,-13.382923
-19.986534,-13.944938,-13.326218
-19.986534,-12.508081,-13.265996
-19.986534,-11.062148,-13.233292
-19.986534,-9.599606,-13.250953
-19.986534,-8.115619,-13.333640
-19.986534,-6.608053,-13.487824
-19.986534,-5.077473,-13.711792
-19.986534,-3.527146,-13.995641
-19.986534,-1.963035,-14.321283
-19.986534,-0.393807,-14.662440
-19.986534,1.169172,-14.984650
-19.986534,2.711836,-15.245262
-19.986534,4.217420,-15.393436
-19.986534,5.666458,-15.370148
-19.986534,7.036783,-15.108184
-19.986534,8.303530,-14.532145
-19.986534,9.439133,-13.558443
-19.986534,10.413324,-12.095304
-21.200998,-16.003742,-13.466727
-21.200998,-14.661997,-13.475207
-21.200998,-13.326478,-13.464809
-21.200998,-11.988522,-13.461797
-21.200998,-10.641472,-13.486366
-21.200998,-9.280667,-13.552640
-21.200998,-7.903454,-13.668669
-21.200998,-6.509177,-13.836437
-21.200998,-5.099187,-14.051853
-21.200998,-3.676834,-14.304757
-21.200998,-2.247471,-14.578919
-21.200998,-0.818451,-14.852036
-21.200998,0.600866,-15.095735
-21.200998,1.999123,-15.275573
-21.200998,3.362957,-15.351034
-21.200998,4.677006,-15.275534
-21.200998,5.923905,-14.996415
-21.200998,7.084285,-14.454951
-21.200998,8.136776,-13.586343
-21.200998,9.058008,-12.319723
-22.415462,-15.205173,-13.540681
-22.415462,-13.981442,-13.581152
-22.415462,-12.759799,-13.615292
-22.415462,-11.534920,-13.659244
-22.415462,-10.302867,-13.724948
-22.415462,-9.061092,-13.820135
-22.415462,-7.808431,-13.948330
-22.415462,-6.545107,-14.108855
-22.415462,-5.272733,-14.296825
-22.415462,-3.994306,-14.503148
-22.415462,-2.714211,-14.714528
-22.415462,-1.438221,-14.913463
-22.415462,-0.173493,-15.078245
-22.415462,1.071424,-15.182960
-22.415462,2.286600,-15.197489
-22.415462,3.460713,-15.087507
-22.415462,4.581057,-14.814482
-22.415462,5.633537,-14.335678
-22.415462,6.602673,-13.604154
-22.415462,7.471597,-12.568761
-23.629927,-14.493232,-13.583154
-23.629927,-13.399040,-13.652668
-23.629927,-12.305637,-13.719787
-23.629927,-11.210076,-13.793449
-23.629927,-10.110292,-13.879918
-23.629927,-9.005100,-13.982784
-23.629927,-7.894198,-14.102963
-23.629927,-6.778166,-14.238700
-23.629927,-5.658465,-14.385562
-23.629927,-4.537438,-14.536445
-23.629927,-3.418309,-14.681570
-23.629927,-2.305186,-14.808486
-23.629927,-1.203057,-14.902065
-23.629927,-0.117792,-14.944509
-23.629927,0.943858,-14.915344
-23.629927,1.974257,-14.791422
-23.629927,2.964892,-14.546922
-23.629927,3.906364,-14.153349
-23.629927,4.788395,-13.579535
-23.629927,5.599824,-12.791638
0.000000,-13.099637,12.327964
0.000000,-11.376100,12.317198
0.000000,-9.652563,12.040733
0.000000,-7.929026,11.605775
0.000000,-6.205490,11.099582
0.000000,-4.481953,10.590833
0.000000,-2.758416,10.131002
0.000000,-1.034879,9.755725
0.000000,0.688657,9.486172
0.000000,2.412194,9.330416
0.000000,4.135731,9.284804
0.000000,5.859268,9.335326
0.000000,7.582804,9.458987
0.000000,9.306341,9.625174
0.000000,11.029878,9.797032
0.000000,12.753415,9.932826
0.000000,14.476951,9.987319
0.000000,16.200488,9.913135
0.000000,17.924025,9.662136
0.000000,19.647562,9.186788
-1.272896,-15.554827,11.640671
-1.272896,-13.676114,12.277522
-1.272896,-11.797402,12.386969
-1.272896,-9.918690,12.144636
-1.272896,-8.039977,11.695325
-1.272896,-6.161265,11.155120
-1.272896,-4.282553,10.613501
-1.272896,-2.403841,10.135449
-1.272896,-0.525128,9.763554
-1.272896,1.353584,9.520128
-1.272896,3.232296,9.409308
-1.272896,5.111009,9.419168
-1.272896,6.989721,9.523825
-1.272896,8.868433,9.685549
-1.272896,10.747146,9.856872
-1.272896,12.625858,9.982696
-1.272896,14.504570,10.002401
-1.272896,16.383283,9.851951
-1.272896,18.261995,9.466008
-1.272896,20.140707,8.780037
-2.545793,-16.232446,11.348217
-2.545793,-14.307258,12.222767
-2.545793,-12.382069,12.475762
-2.545793,-10.456881,12.308135
-2.545793,-8.531693,11.885822
-2.545793,-6.606505,11.342148
-2.545793,-4.681317,10.780211
-2.545793,-2.756129,10.275260
-2.545793,-0.830941,9.877081
-2.545793,1.094247,9.612379
-2.545793,3.019435,9.487159
-2.545793,4.944623,9.489109
-2.545793,6.869811,9.589984
-2.545793,8.794999,9.747988
-2.545793,10.720187,9.910154
-2.545793,12.645375,10.014730
-2.545793,14.570563,9.993559
-2.545793,16.495751,9.774462
-2.545793,18.420939,9.283622
-2.545793,20.346127,8.447965
-3.818689,-16.216510,11.533721
-3.818689,-14.292526,12.364362
-3.818689,-12.368542,12.581400
-3.818689,-10.444558,12.385598
-3.818689,-8.520574,11.942547
-3.818689,-6.596590,11.385043
-3.818689,-4.672606,10.815462
-3.818689,-2.748622,10.308133
-3.818689,-0.824638,9.911713
-3.818689,1.099346,9.651566
-3.818689,3.023330,9.532132
-3.818689,4.947314,9.539308
-3.818689,6.871297,9.642820
-3.818689,8.795281,9.798598
-3.818689,10.719265,9.951149
-3.818689,12.643249,10.035940
-3.818689,14.567233,9.981762
-3.818689,16.491217,9.713115
-3.818689,18.415201,9.152575
-3.818689,20.339185,8.223175
-5.091586,-16.138496,11.799596
-5.091586,-14.226833,12.544858
-5.091586,-12.315170,12.700106
-5.091586,-10.403506,12.461385
-5.091586,-8.491843,11.990255
-5.091586,-6.580180,11.416086
-5.091586,-4.668516,10.838360
-5.091586,-2.756853,10.328967
-5.091586,-0.845190,9.934514
-5.091586,1.066474,9.678615
-5.091586,2.978137,9.564196
-5.091586,4.889800,9.575795
-5.091586,6.801464,9.681862
-5.091586,8.713127,9.837056
-5.091586,10.624790,9.984549
-5.091586,12.536453,10.058323
-5.091586,14.448117,9.985471
-5.091586,16.359780,9.688498
-5.091586,18.271443,9.087619
-5.091586,20.183107,8.103061
-6.364482,-16.294020,11.950932
-6.364482,-14.387546,12.688290
-6.364482,-12.481072,12.831490
-6.364482,-10.574598,12.578026
-6.364482,-8.668124,12.090807
-6.364482,-6.761651,11.500427
-6.364482,-4.855177,10.907434
-6.364482,-2.948703,10.384600
-6.364482,-1.042229,9.979185
-6.364482,0.864245,9.715214
-6.364482,2.770719,9.595738
-6.364482,4.677192,9.605107
-6.364482,6.583666,9.711240
-6.364482,8.490140,9.867890
-6.364482,10.396614,10.016916
-6.364482,12.303088,10.090551
-6.364482,14.209562,10.013671
-6.364482,16.116035,9.706064
-6.364482,18.022509,9.084699
-6.364482,19.928983,8.065993
-7.637379,-16.744941,11.930461
-7.637379,-14.831219,12.770091
-7.637379,-12.917498,12.972118
-7.637379,-11.003776,12.744541
-7.637379,-9.090055,12.259441
-7.637379,-7.176333,11.655298
-7.637379,-5.262612,11.039300
-7.637379,-3.348890,10.489658
-7.637379,-1.435169,10.057913
-7.637379,0.478553,9.771258
-7.637379,2.392275,9.634839
-7.637379,4.305996,9.634078
-7.637379,6.219718,9.736977
-7.637379,8.133439,9.896435
-7.637379,10.047161,10.052560
-7.637379,11.960882,10.134978
-7.637379,13.874604,10.065151
-7.637379,15.788325,9.758685
-7.637379,17.702047,9.127643
-7.637379,19.615769,8.082859
-8.910275,-17.406908,11.727443
-8.910275,-15.476529,12.769074
-8.910275,-13.546151,13.096291
-8.910275,-11.615773,12.935063
-8.910275,-9.685394,12.473104
-8.910275,-7.755016,11.862289
-8.910275,-5.824637,11.221069
-8.910275,-3.894259,10.636884
-8.910275,-1.963881,10.168583
-8.910275,-0.033502,9.848831
-8.910275,1.896876,9.686530
-8.910275,3.827255,9.669232
-8.910275,5.757633,9.765552
-8.910275,7.688011,9.927586
-8.910275,9.618390,10.093322
-8.910275,11.548768,10.189058
-8.910275,13.479146,10.131816
-8.910275,15.409525,9.831755
-8.910275,17.339903,9.194588
-8.910275,19.270282,8.123995
-10.183172,-18.122330,11.387020
-10.183172,-16.173407,12.683786
-10.183172,-14.224484,13.174927
-10.183172,-12.275561,13.107151
-10.183172,-10.326638,12.686246
-10.183172,-8.377715,12.079609
-10.183172,-6.428792,11.418782
-10.183172,-4.479870,10.801980
-10.183172,-2.530947,10.296630
-10.183172,-0.582024,9.941902
-10.183172,1.366899,9.751238
-10.183172,3.315822,9.714892
-10.183172,5.264745,9.802456
-10.183172,7.213667,9.965400
-10.183172,9.162590,10.139599
-10.183172,11.111513,10.247869
-10.183172,13.060436,10.202500
-10.183172,15.009359,9.907788
-10.183172,16.958282,9.262567
-10.183172,18.907205,8.162748
-11.456068,-18.718784,11.040693
-11.456068,-16.758370,12.563424
-11.456068,-14.797956,13.204359
-11.456068,-12.837542,13.226844
-11.456068,-10.877128,12.851262
-11.456068,-8.916714,12.257644
-11.456068,-6.956300,11.588273
-11.456068,-4.995886,10.950296
-11.456068,-3.035471,10.418332
-11.456068,-1.075057,10.037080
-11.456068,0.885357,9.823929
-11.456068,2.845771,9.771563
-11.456068,4.806185,9.850575
-11.456068,6.766599,10.012070
-11.456068,8.727013,10.190276
-11.456068,10.687427,10.305156
-11.456068,12.647841,10.265010
-11.456068,14.608255,9.969088
-11.456068,16.568669,9.310198
-11.456068,18.529084,8.177313
-12.728965,-19.052857,10.870913
-12.728965,-17.096058,12.495670
-12.728965,-15.139259,13.209162
-12.728965,-13.182459,13.280114
-12.728965,-11.225660,12.933854
-12.728965,-9.268861,12.354896
-12.728965,-7.312062,11.689523
-12.728965,-5.355262,11.048377
-12.728965,-3.398463,10.509038
-12.728965,-1.441664,10.118611
-12.728965,0.515135,9.896311
-12.728965,2.471935,9.836046
-12.728965,4.428734,9.909003
-12.728965,6.385533,10.066234
-12.728965,8.342333,10.241237
-12.728965,10.299132,10.352542
-12.728965,12.255931,10.306298
-12.728965,14.212730,9.998854
-12.728965,16.169530,9.319347
-12.728965,18.126329,8.152283
-14.001861,-19.039414,10.998366
-14.001861,-17.106960,12.540934
-14.001861,-15.174505,13.209477
-14.001861,-13.242051,13.262280
-14.001861,-11.309597,12.916018
-14.001861,-9.377143,12.348187
-14.001861,-7.444689,11.699527
-14.001861,-5.512235,11.076455
-14.001861,-3.579781,10.553488
-14.001861,-1.647327,10.175675
-14.001861,0.285128,9.961019
-14.001861,2.217582,9.902914
-14.001861,4.150036,9.972562
-14.001861,6.082490,10.121410
-14.001861,8.014944,10.283571
-14.001861,9.947398,10.378258
-14.001861,11.879852,10.312204
-14.001861,13.812307,9.982100
-14.001861,15.744761,9.277011
-14.001861,17.677215,8.080814
-15.274758,-18.666303,11.382275
-15.274758,-16.781346,12.671254
-15.274758,-14.896389,13.187473
-15.274758,-13.011432,13.163217
-15.274758,-11.126475,12.793159
-15.274758,-9.241518,12.236509
-15.274758,-7.356561,11.619152
-15.274758,-5.471604,11.035799
-15.274758,-3.586647,10.552123
-15.274758,-1.701690,10.206908
-15.274758,0.183267,10.014191
-15.274758,2.068223,9.965406
-15.274758,3.953180,10.031527
-15.274758,5.838137,10.165213
-15.274758,7.723094,10.302950
-15.274758,9.608051,10.367197
-15.274758,11.493008,10.268528
-15.274758,13.377965,9.907777
-15.274758,15.262922,9.178179
-15.274758,17.147879,7.967518
-16.547654,-17.994496,11.837544
-16.547654,-16.179400,12.782571
-16.547654,-14.364305,13.095620
-16.547654,-12.549209,12.972406
-16.547654,-10.734113,12.576608
-16.547654,-8.919017,12.041642
-16.547654,-7.103921,11.472434
-16.547654,-5.288826,10.947196
-16.547654,-3.473730,10.519201
-16.547654,-1.658634,10.218556
-16.547654,0.156462,10.053982
-16.547654,1.971557,10.014584
-16.547654,3.786653,10.071625
-16.547654,5.601749,10.180306
-16.547654,7.416845,10.281536
-16.547654,9.231941,10.303711
-16.547654,11.047036,10.164485
-16.547654,12.862132,9.772547
-16.547654,14.677228,9.029395
-16.547654,16.492324,7.831111
-17.820551,-17.143656,12.160592
-17.820551,-15.417547,12.773225
-17.820551,-13.691438,12.900813
-17.820551,-11.965329,12.699163
-17.820551,-10.239220,12.298236
-17.820551,-8.513111,11.803527
-17.820551,-6.787002,11.297445
-17.820551,-5.060893,10.840693
-17.820551,-3.334784,10.473647
-17.820551,-1.608675,10.217742
-17.820551,0.117434,10.076845
-17.820551,1.843543,10.038641
-17.820551,3.569652,10.076011
-17.820551,5.295761,10.148411
-17.820551,7.021870,10.203257
-17.820551,8.747979,10.177301
-17.820551,10.474088,9.998013
-17.820551,12.200197,9.584962
-17.820551,13.926306,8.851194
-17.820551,15.652415,7.704617
-19.093447,-16.263140,12.246685
-19.093447,-14.640981,12.609692
-19.093447,-13.018822,12.614207
-19.093447,-11.396663,12.379002
-19.093447,-9.774504,12.002966
-19.093447,-8.152345,11.566116
-19.093447,-6.530186,11.130610
-19.093447,-4.908027,10.741758
-19.093447,-3.285868,10.429033
-19.093447,-1.663708,10.207086
-19.093447,-0.041549,10.076755
-19.093447,1.580610,10.026079
-19.093447,3.202769,10.031307
-19.093447,4.824928,10.057912
-19.093447,6.447087,10.061603
-19.093447,8.069246,9.989337
-19.093447,9.691405,9.780329
-19.093447,11.313564,9.367065
-19.093447,12.935723,8.676317
-19.093447,14.557882,7.630147
-20.366344,-15.488434,12.107047
-20.366344,-13.982394,12.323152
-20.366344,-12.476354,12.275798
-20.366344,-10.970315,12.052768
-20.366344,-9.464275,11.727220
-20.366344,-7.958236,11.358381
-20.366344,-6.452196,10.992247
-20.366344,-4.946156,10.662283
-20.366344,-3.440117,10.390118
-20.366344,-1.934077,10.186243
-20.366344,-0.428038,10.050710
-20.366344,1.078002,9.973833
-20.366344,2.584042,9.936879
-20.366344,4.090081,9.912773
-20.366344,5.596121,9.866790
-20.366344,7.102160,9.757259
-20.366344,8.608200,9.536257
-20.366344,10.114240,9.150306
-20.366344,11.620279,8.541075
-20.366344,13.126319,7.646075
-21.639240,-14.883022,11.808410
-21.639240,-13.506905,11.959990
-21.639240,-12.130789,11.915320
-21.639240,-10.754673,11.737187
-21.639240,-9.378557,11.478223
-21.639240,-8.002441,11.181343
-21.639240,-6.626325,10.880197
-21.639240,-5.250209,10.599608
-21.639240,-3.874093,10.356020
-21.639240,-2.497977,10.157944
-21.639240,-1.121861,10.006397
-21.639240,0.254255,9.895353
-21.639240,1.630371,9.812183
-21.639240,3.006487,9.738103
-21.639240,4.382603,9.648615
-21.639240,5.758719,9.513955
-21.639240,7.134835,9.299533
-21.639240,8.510951,8.966385
-21.639240,9.887067,8.471608
-21.639240,11.263183,7.768815
-22.912137,-14.365685,11.421164
-22.912137,-13.143186,11.548081
-22.912137,-11.920687,11.531369
-22.912137,-10.698188,11.412705
-22.912137,-9.475689,11.227434
-22.912137,-8.253190,11.004820
-22.912137,-7.030691,10.768286
-22.912137,-5.808192,10.535664
-22.912137,-4.585693,10.319439
-22.912137,-3.363194,10.126996
-22.912137,-2.140695,9.960865
-22.912137,-0.918196,9.818970
-22.912137,0.304303,9.694869
-22.912137,1.526802,9.578006
-22.912137,2.749301,9.453955
-22.912137,3.971800,9.304664
-22.912137,5.194299,9.108702
-22.912137,6.416798,8.841508
-22.912137,7.639297,8.475634
-22.912137,8.861796,7.980988
-24.185033,-13.623238,11.020469
-24.185033,-12.600786,11.110063
-24.185033,-11.578334,11.109151
-24.185033,-10.555883,11.040226
-24.185033,-9.533431,10.922693
-24.185033,-8.510979,10.772973
-24.185033,-7.488527,10.604601
-24.185033,-6.466076,10.428328
-24.185033,-5.443624,10.252223
-24.185033,-4.421172,10.081772
-24.185033,-3.398721,9.919976
-24.185033,-2.376269,9.767457
-24.185033,-1.353817,9.622556
-24.185033,-0.331366,9.481435
-24.185033,0.691086,9.338173
-24.185033,1.713538,9.184873
-24.185033,2.735989,9.011759
-24.185033,3.758441,8.807279
-24.185033,4.780893,8.558201
-24.185033,5.803344,8.249719
23.969405,0.000000,-6.149273
23.215065,0.000000,-4.638110
22.629121,0.000000,-3.126947
22.262482,0.000000,-1.615783
22.142871,0.000000,-0.104620
22.274828,0.000000,1.406543
22.639706,0.000000,2.917707
23.195672,0.000000,4.428870
23.877709,0.000000,5.940034
24.597615,0.000000,7.451197
25.244002,0.000000,8.962360
26.285666,1.031033,-13.705090
26.339225,1.031033,-12.193927
25.982340,1.031033,-10.682764
25.376072,1.031033,-9.171600
24.658299,1.031033,-7.660437
23.943713,1.031033,-6.149273
23.323821,1.031033,-4.638110
22.866943,1.031033,-3.126947
22.618216,1.031033,-1.615783
22.599591,1.031033,-0.104620
22.809833,1.031033,1.406543
23.224523,1.031033,2.917707
23.796057,1.031033,4.428870
24.453643,1.031033,5.940034
25.103307,1.031033,7.451197
25.627888,1.031033,8.962360
25.601794,2.062066,-13.705090
25.698533,2.062066,-12.193927
25.409579,2.062066,-10.682764
24.890221,2.062066,-9.171600
24.272564,2.062066,-7.660437
23.665527,2.062066,-6.149273
23.154844,2.062066,-4.638110
22.803062,2.062066,-3.126947
22.649547,2.062066,-1.615783
22.710475,2.062066,-0.104620
22.978840,2.062066,1.406543
23.424449,2.062066,2.917707
23.993924,2.062066,4.428870
24.610702,2.062066,5.940034
25.175036,2.062066,7.451197
25.563992,2.062066,8.962360
24.872385,3.093099,-13.705090
24.984681,3.093099,-12.193927
24.737304,3.093099,-10.682764
24.279771,3.093099,-9.171600
23.738413,3.093099,-7.660437
23.216378,3.093099,-6.149273
22.793625,3.093099,-4.638110
22.526931,3.093099,-3.126947
22.449886,3.093099,-1.615783
22.572895,3.093099,-0.104620
22.883178,3.093099,1.406543
23.344771,3.093099,2.917707
23.898522,3.093099,4.428870
24.462096,3.093099,5.940034
24.929971,3.093099,7.451197
25.173442,3.093099,8.962360
24.141528,4.124132,-13.705090
24.245718,4.124132,-12.193927
24.017524,4.124132,-10.682764
23.600690,4.124132,-9.171600
23.115776,4.124132,-7.660437
22.660154,4.124132,-6.149273
22.308013,4.124132,-4.638110
22.110355,4.124132,-3.126947
22.094998,4.124132,-1.615783
22.266576,4.124132,-0.104620
22.606534,4.124132,1.406543
23.073135,4.124132,2.917707
23.601455,4.124132,4.428870
24.103386,4.124132,5.940034
24.467634,4.124132,7.451197
23.512050,5.155165,-12.193927
23.284604,5.155165,-10.682764
22.891304,5.155165,-9.171600
22.446935,5.155165,-7.660437
22.043098,5.155165,-6.149273
21.748208,5.155165,-4.638110
21.607496,5.155165,-3.126947
21.643006,5.155165,-1.615783
21.853598,5.155165,-0.104620
22.214946,5.155165,1.406543
22.679539,5.155165,2.917707
23.176682,5.155165,4.428870
23.612492,5.155165,5.940034
23.869903,5.155165,7.451197
22.763611,6.186197,-13.705090
22.796437,6.186197,-12.193927
22.555264,6.186197,-10.682764
22.172290,6.186197,-9.171600
21.756529,6.186197,-7.660437
21.393808,6.186197,-6.149273
21.146770,6.186197,-4.638110
21.054872,6.186197,-3.126947
21.134385,6.186197,-1.615783
21.378398,6.186197,-0.104620
21.756811,6.186197,1.406543
22.216340,6.186197,2.917707
22.680517,6.186197,4.428870
23.049687,6.186197,5.940034
23.201011,6.186197,7.451197
22.093995,7.217230,-12.193927
21.828578,7.217230,-10.682764
21.446684,7.217230,-9.171600
21.051552,7.217230,-7.660437
20.723238,7.217230,-6.149273
20.518610,7.217230,-4.638110
20.471354,7.217230,-3.126947
20.591968,7.217230,-1.615783
20.867767,7.217230,-0.104620
21.262878,7.217230,1.406543
21.718246,7.217230,2.917707
22.151629,7.217230,4.428870
22.457600,7.217230,5.940034
22.507546,7.217230,7.451197
22.149670,7.217230,8.962360
21.382194,8.248263,-12.193927
21.085978,8.248263,-10.682764
20.699875,8.248263,-9.171600
20.321354,8.248263,-7.660437
20.024695,8.248263,-6.149273
19.860997,8.248263,-4.638110
19.858170,8.248263,-3.126947
20.020941,8.248263,-1.615783
20.330850,8.248263,-0.104620
20.746254,8.248263,1.406543
21.202324,8.248263,2.917707
21.611045,8.248263,4.428870
21.861216,8.248263,5.940034
21.818453,8.248263,7.451197
21.325185,8.248263,8.962360
20.620860,9.279296,-12.193927
20.291247,9.279296,-10.682764
19.899608,9.279296,-9.171600
19.537638,9.279296,-7.660437
19.273845,9.279296,-6.149273
19.153554,9.279296,-4.638110
19.198903,9.279296,-3.126947
19.408845,9.279296,-1.615783
19.759150,9.279296,-0.104620
20.202400,9.279296,1.406543
20.667993,9.279296,2.917707
21.062142,9.279296,4.428870
21.267873,9.279296,5.940034
21.145029,9.279296,7.451197
20.530266,9.279296,8.962360
19.752175,10.310329,-12.193927
19.390528,10.310329,-10.682764
18.995984,10.310329,-9.171600
18.654464,10.310329,-7.660437
18.428705,10.310329,-6.149273
18.358258,10.310329,-4.638110
18.459490,10.310329,-3.126947
18.725580,10.310329,-1.615783
19.126524,10.310329,-0.104620
19.609132,10.310329,1.406543
20.097030,10.310329,2.917707
20.490657,10.310329,4.428870
20.667267,10.310329,5.940034
20.480929,10.310329,7.451197
19.762529,10.310329,8.962360
18.700675,11.341362,-12.193927
18.312315,11.341362,-10.682764
17.921456,11.341362,-9.171600
17.608247,11.341362,-7.660437
17.429650,11.341362,-6.149273
17.419445,11.341362,-4.638110
17.588225,11.341362,-3.126947
17.923396,11.341362,-1.615783
18.389183,11.341362,-0.104620
18.926622,11.341362,1.406543
19.453565,11.341362,2.917707
19.864679,11.341362,4.428870
20.031446,11.341362,5.940034
19.802163,11.341362,7.451197
19.001940,11.341362,8.962360
17.373251,12.372395,-12.193927
16.967461,12.372395,-10.682764
16.590837,12.372395,-9.171600
16.317757,12.372395,-7.660437
16.199410,12.372395,-6.149273
16.263803,12.372395,-4.638110
16.515755,12.372395,-3.126947
16.936903,12.372395,-1.615783
17.485694,12.372395,-0.104620
18.097395,12.372395,1.406543
18.684084,12.372395,2.917707
19.134655,12.372395,4.428870
19.314817,12.372395,5.940034
19.067094,12.372395,7.451197
18.210824,12.372395,8.962360
15.659151,13.403428,-12.193927
15.249170,13.403428,-10.682764
14.901291,13.403428,-9.171600
14.684118,13.403428,-7.660437
14.643069,13.403428,-6.149273
14.800375,13.403428,-4.638110
15.155086,13.403428,-3.126947
15.683062,13.403428,-1.615783
16.336981,13.403428,-0.104620
17.046334,13.403428,1.406543
17.717428,13.403428,2.917707
18.233385,13.403428,4.428870
18.454139,13.403428,5.940034
18.216443,13.403428,7.451197
13.429976,14.434461,-12.193927
13.033005,14.434461,-10.682764
12.732340,14.434461,-9.171600
12.590812,14.434461,-7.660437
12.648066,14.434461,-6.149273
12.920562,14.434461,-4.638110
13.401574,14.434461,-3.126947
14.061192,14.434461,-1.615783
14.846319,14.434461,-0.104620
15.680676,14.434461,1.406543
16.464795,14.434461,2.917707
17.076025,14.434461,4.428870
17.368528,14.434461,5.940034
17.173283,14.434461,7.451197
16.298083,14.434461,8.962360
10.539684,15.465494,-12.193927
10.176882,15.465494,-10.682764
9.945859,15.465494,-9.171600
9.903674,15.465494,-7.660437
10.084197,15.465494,-6.149273
10.498117,15.465494,-4.638110
11.132934,15.465494,-3.126947
11.952966,15.465494,-1.615783
12.899344,15.465494,-0.104620
13.890013,15.465494,1.406543
14.819735,15.465494,2.917707
15.560086,15.465494,4.428870
15.959454,15.465494,5.940034
15.843046,15.465494,7.451197
15.012882,15.465494,8.962360
6.824586,16.496526,-12.193927
6.521073,16.496526,-10.682764
6.386081,16.496526,-9.171600
6.470894,16.496526,-7.660437
6.803612,16.496526,-6.149273
7.389150,16.496526,-4.638110
8.209236,16.496526,-3.126947
9.222414,16.496526,-1.615783
10.364042,16.496526,-0.104620
11.546293,16.496526,1.406543
12.658157,16.496526,2.917707
13.565434,16.496526,4.428870
14.110743,16.496526,5.940034
14.113517,16.496526,7.451197
13.370001,16.496526,8.962360
2.103352,17.527559,-12.193927
1.888206,17.527559,-10.682764
1.879591,17.527559,-9.171600
2.123019,17.527559,-7.660437
2.640817,17.527559,-6.149273
3.432127,17.527559,-4.638110
4.472903,17.527559,-3.126947
5.715918,17.527559,-1.615783
7.090756,17.527559,-0.104620
8.503819,17.527559,1.406543
9.838321,17.527559,2.917707
10.954292,17.527559,4.428870
11.688577,17.527559,5.940034
11.854835,17.527559,7.451197
11.243541,17.527559,8.962360
1.262218,18.558592,-1.615783
2.912186,18.558592,-0.104620
4.599248,18.558592,1.406543
6.200845,18.558592,2.917707
7.571236,18.558592,4.428870
8.541491,18.558592,5.940034
8.919497,18.558592,7.451197
8.489956,18.558592,8.962360
1.568703,19.589625,2.917707
3.243198,19.589625,4.428870
4.500377,19.589625,5.940034
5.142354,19.589625,7.451197
11.740745,-16.451354,-12.193927
15.893622,-16.451354,-10.682764
18.228905,-16.451354,-9.171600
19.379365,-16.451354,-7.660437
19.821138,-16.451354,-6.149273
19.894330,-16.451354,-4.638110
19.823612,-16.451354,-3.126947
19.738829,-16.451354,-1.615783
19.695595,-16.451354,-0.104620
19.695898,-16.451354,1.406543
19.708699,-16.451354,2.917707
19.690537,-16.451354,4.428870
19.606127,-16.451354,5.940034
19.448961,-16.451354,7.451197
19.261913,-16.451354,8.962360
19.157837,-16.451354,10.473524
19.340169,-16.451354,11.984687
14.780088,-15.537390,-12.193927
18.468489,-15.537390,-10.682764
20.446766,-15.537390,-9.171600
21.328631,-15.537390,-7.660437
21.573177,-15.537390,-6.149273
21.505482,-15.537390,-4.638110
21.337209,-15.537390,-3.126947
21.187207,-15.537390,-1.615783
21.102110,-15.537390,-0.104620
21.076944,-15.537390,1.406543
21.075723,-15.537390,2.917707
21.052056,-15.537390,4.428870
20.969740,-15.537390,5.940034
20.823371,-15.537390,7.451197
20.658937,-15.537390,8.962360
20.594427,-15.537390,10.473524
20.840424,-15.537390,11.984687
17.333177,-14.623426,-12.193927
20.593351,-14.623426,-10.682764
22.245531,-14.623426,-9.171600
22.884877,-14.623426,-7.660437
22.953946,-14.623426,-6.149273
22.763296,-14.623426,-4.638110
22.512085,-14.623426,-3.126947
22.308671,-14.623426,-1.615783
22.191219,-14.623426,-0.104620
22.148296,-14.623426,1.406543
22.139476,-14.623426,2.917707
22.115940,-14.623426,4.428870
22.041081,-14.623426,5.940034
21.911097,-14.623426,7.451197
21.775603,-14.623426,8.962360
21.758223,-14.623426,10.473524
19.453846,-13.709462,-12.193927
22.320961,-13.709462,-10.682764
23.676985,-13.709462,-9.171600
24.099032,-13.709462,-7.660437
24.013628,-13.709462,-6.149273
23.717316,-13.709462,-4.638110
23.397255,-13.709462,-3.126947
23.151822,-13.709462,-1.615783
23.011214,-13.709462,-0.104620
22.958048,-13.709462,1.406543
22.947963,-13.709462,2.917707
22.930221,-13.709462,4.428870
22.868311,-13.709462,5.940034
22.760546,-13.709462,7.451197
22.660668,-13.709462,8.962360
22.698448,-13.709462,10.473524
21.194042,-12.795498,-12.193927
23.702049,-12.795498,-10.682764
24.790750,-12.795498,-9.171600
25.019718,-12.795498,-7.660437
24.799955,-12.795498,-6.149273
24.414496,-12.795498,-4.638110
24.039006,-12.795498,-3.126947
23.762387,-12.795498,-1.615783
23.607375,-12.795498,-0.104620
23.551141,-12.795498,1.406543
23.545897,-12.795498,2.917707
23.539493,-12.795498,4.428870
23.496018,-12.795498,5.940034
23.416407,-12.795498,7.451197
23.359035,-12.795498,8.962360
23.460324,-12.795498,10.473524
22.603424,-11.881534,-12.193927
24.784915,-11.881534,-10.682764
25.633875,-11.881534,-9.171600
25.692844,-11.881534,-7.660437
25.357807,-11.881534,-6.149273
24.898795,-11.881534,-4.638110
24.480488,-11.881534,-3.126947
24.182816,-11.881534,-1.615783
24.021561,-11.881534,-0.104620
23.968957,-11.881534,1.406543
23.974291,-11.881534,2.917707
23.984507,-11.881534,4.428870
23.964805,-11.881534,5.940034
23.919243,-11.881534,7.451197
23.911337,-11.881534,8.962360
24.084668,-11.881534,10.473524
23.728955,-10.967569,-12.193927
25.615018,-10.967569,-10.682764
26.250429,-10.967569,-9.171600
26.161199,-10.967569,-7.660437
25.728800,-10.967569,-6.149273
25.210769,-10.967569,-4.638110
24.761304,-10.967569,-3.126947
24.451873,-10.967569,-1.615783
24.291807,-10.967569,-0.104620
24.248907,-10.967569,1.406543
24.270046,-10.967569,2.917707
24.301766,-10.967569,4.428870
24.310883,-10.967569,5.940034
24.305084,-10.967569,7.451197
24.353536,-10.967569,8.962360
24.607480,-10.967569,10.473524
24.614490,-10.053605,-12.193927
26.234572,-10.053605,-10.682764
26.681092,-10.053605,-9.171600
26.464040,-10.053605,-7.660437
25.950882,-10.053605,-6.149273
25.387163,-10.053605,-4.638110
24.917109,-10.053605,-3.126947
24.604228,-10.053605,-1.615783
24.451910,-10.053605,-0.104620
24.424029,-10.053605,1.406543
24.465548,-10.053605,2.917707
24.523114,-10.053605,4.428870
24.565663,-10.053605,5.940034
24.605023,-10.053605,7.451197
24.716511,-10.053605,8.962360
25.059538,-10.053605,10.473524
22.161880,-9.139641,-13.705090
25.300372,-9.139641,-12.193927
26.682136,-9.139641,-10.682764
26.962751,-9.139641,-9.171600
26.636690,-9.139641,-7.660437
26.057921,-9.139641,-6.149273
25.460503,-9.139641,-4.638110
24.979195,-9.139641,-3.126947
24.670052,-9.139641,-1.615783
24.531028,-9.139641,-0.104620
24.522578,-9.139641,1.406543
24.588259,-9.139641,2.917707
24.675329,-9.139641,4.428870
24.755354,-9.139641,5.940034
24.844803,-9.139641,7.451197
25.025654,-9.139641,8.962360
25.465992,-9.139641,10.473524
22.981983,-8.225677,-13.705090
25.823025,-8.225677,-12.193927
26.992209,-8.225677,-10.682764
27.128090,-8.225677,-9.171600
26.710130,-8.225677,-7.660437
26.079302,-8.225677,-6.149273
25.458690,-8.225677,-4.638110
24.974088,-8.225677,-3.126947
24.674607,-8.225677,-1.615783
24.553270,-8.225677,-0.104620
24.567617,-8.225677,1.406543
24.660308,-8.225677,2.917707
24.779718,-8.225677,4.428870
24.900547,-8.225677,5.940034
25.044413,-8.225677,7.451197
25.300459,-8.225677,8.962360
25.845954,-8.225677,10.473524
23.642316,-7.311713,-13.705090
26.214545,-7.311713,-12.193927
27.194822,-7.311713,-10.682764
27.205184,-7.311713,-9.171600
26.710588,-7.311713,-7.660437
26.039520,-7.311713,-6.149273
25.404591,-7.311713,-4.638110
24.923142,-7.311713,-3.126947
24.637840,-7.311713,-1.615783
24.537286,-7.311713,-0.104620
24.576613,-7.311713,1.406543
24.698087,-7.311713,2.917707
24.851708,-7.311713,4.428870
25.015814,-7.311713,5.940034
25.217680,-7.311713,7.451197
25.554120,-7.311713,8.962360
26.212090,-7.311713,10.473524
24.172557,-6.397749,-13.705090
26.502292,-6.397749,-12.193927
27.315128,-6.397749,-10.682764
27.217088,-6.397749,-9.171600
26.659134,-6.397749,-7.660437
25.957767,-6.397749,-6.149273
25.315634,-6.397749,-4.638110
24.842125,-6.397749,-3.126947
24.573975,-6.397749,-1.615783
24.495866,-6.397749,-0.104620
24.561028,-6.397749,1.406543
24.711841,-6.397749,2.917707
24.900437,-6.397749,4.428870
25.109298,-6.397749,5.940034
25.371861,-6.397749,7.451197
25.793117,-6.397749,8.962360
26.570217,-6.397749,10.473524
26.708484,-5.483785,-12.193927
27.372998,-5.483785,-10.682764
27.181437,-5.483785,-9.171600
26.571272,-5.483785,-7.660437
25.847530,-5.483785,-6.149273
25.203397,-5.483785,-4.638110
24.740820,-5.483785,-3.126947
24.491106,-5.483785,-1.615783
24.435524,-5.483785,-0.104620
24.525910,-5.483785,1.406543
24.705263,-5.483785,2.917707
24.928350,-5.483785,4.428870
25.182306,-5.483785,5.940034
25.507235,-5.483785,7.451197
26.016814,-5.483785,8.962360
26.918890,-5.483785,10.473524
24.936061,-4.569821,-13.705090
26.849792,-4.569821,-12.193927
27.382610,-4.569821,-10.682764
27.110030,-4.569821,-9.171600
26.456534,-4.569821,-7.660437
25.716181,-4.569821,-6.149273
25.073204,-4.569821,-4.638110
24.622611,-4.569821,-3.126947
24.390788,-4.569821,-1.615783
24.356098,-4.569821,-0.104620
24.469488,-4.569821,1.406543
24.675081,-4.569821,2.917707
24.930788,-4.569821,4.428870
25.228901,-4.569821,5.940034
25.616699,-4.569821,7.451197
26.217048,-4.569821,8.962360
27.249000,-4.569821,10.473524
25.202044,-3.655856,-13.705090
26.936926,-3.655856,-12.193927
27.352047,-3.655856,-10.682764
27.008427,-3.655856,-9.171600
26.318071,-3.655856,-7.660437
25.564572,-3.655856,-6.149273
24.923716,-3.655856,-4.638110
24.484080,-3.655856,-3.126947
24.267633,-3.655856,-1.615783
24.250340,-3.655856,-0.104620
24.382763,-3.655856,1.406543
24.610659,-3.655856,2.917707
24.895585,-3.655856,4.428870
25.235498,-3.655856,5.940034
25.685357,-3.655856,7.451197
26.377723,-3.655856,8.962360
25.402561,-2.741892,-13.705090
26.974232,-2.741892,-12.193927
27.282884,-2.741892,-10.682764
26.875544,-2.741892,-9.171600
26.152245,-2.741892,-7.660437
25.386623,-2.741892,-6.149273
24.746523,-2.741892,-4.638110
24.314594,-2.741892,-3.126947
24.108899,-2.741892,-1.615783
24.103507,-2.741892,-0.104620
24.249103,-2.741892,1.406543
24.493582,-2.741892,2.917707
24.802655,-2.741892,4.428870
25.180450,-2.741892,5.940034
25.690112,-2.741892,7.451197
26.474403,-2.741892,8.962360
25.538208,-1.827928,-13.705090
26.959287,-1.827928,-12.193927
27.169783,-1.827928,-10.682764
26.703240,-1.827928,-9.171600
25.948224,-1.827928,-7.660437
25.168920,-1.827928,-6.149273
24.525736,-1.827928,-4.638110
24.095905,-1.827928,-3.126947
23.894084,-1.827928,-1.615783
23.892955,-1.827928,-0.104620
24.043831,-1.827928,1.406543
24.297252,-1.827928,2.917707
24.623590,-1.827928,4.428870
25.033647,-1.827928,5.940034
25.599261,-1.827928,7.451197
26.473904,-1.827928,8.962360
25.602545,-0.913964,-13.705090
26.882485,-0.913964,-12.193927
27.000085,-0.913964,-10.682764
26.475913,-0.913964,-9.171600
25.687572,-0.913964,-7.660437
24.890303,-0.913964,-6.149273
24.237585,-0.913964,-4.638110
23.801737,-0.913964,-3.126947
23.594519,-0.913964,-1.615783
23.587732,-0.913964,-0.104620
23.733822,-0.913964,1.406543
23.986481,-0.913964,2.917707
24.321247,-0.913964,4.428870
24.756105,-0.913964,5.940034
25.372089,-0.913964,7.451197
26.333887,-0.913964,8.962360
25.581685,0.000000,-13.705090
26.726635,0.000000,-12.193927
26.753405,0.000000,-10.682764
26.170091,0.000000,-9.171600
25.343843,0.000000,-7.660437
24.521462,0.000000,-6.149273
23.850004,0.000000,-4.638110
23.397380,0.000000,-3.126947
23.172960,0.000000,-1.615783
23.148169,0.000000,-0.104620
23.277094,0.000000,1.406543
23.517083,0.000000,2.917707
23.849346,0.000000,4.428870
24.299558,0.000000,5.940034
24.958457,0.000000,7.451197
26.002449,0.000000,8.962360
17.165112,-18.441515,-12.193927
17.165112,-18.478817,-10.682764
17.165112,-18.509999,-9.171600
17.165112,-18.535062,-7.660437
17.165112,-18.554006,-6.149273
17.165112,-18.566829,-4.638110
17.165112,-18.573534,-3.126947
17.165112,-18.574119,-1.615783
17.165112,-18.568584,-0.104620
17.165112,-18.556930,1.406543
17.165112,-18.539156,2.917707
17.165112,-18.515263,4.428870
17.165112,-18.485251,5.940034
17.165112,-18.449119,7.451197
17.165112,-18.406867,8.962360
16.213337,-18.614162,-12.193927
16.213337,-18.637589,-10.682764
16.213337,-18.654897,-9.171600
16.213337,-18.666085,-7.660437
16.213337,-18.671153,-6.149273
16.213337,-18.670102,-4.638110
16.213337,-18.662932,-3.126947
16.213337,-18.649642,-1.615783
16.213337,-18.630232,-0.104620
16.213337,-18.604703,1.406543
16.213337,-18.573055,2.917707
16.213337,-18.535287,4.428870
16.213337,-18.491399,5.940034
16.213337,-18.441392,7.451197
16.213337,-18.385266,8.962360
16.213337,-18.323020,10.473524
15.261563,-18.765530,-12.193927
15.261563,-18.775082,-10.682764
15.261563,-18.778515,-9.171600
15.261563,-18.775828,-7.660437
15.261563,-18.767021,-6.149273
15.261563,-18.752095,-4.638110
15.261563,-18.731050,-3.126947
15.261563,-18.703885,-1.615783
15.261563,-18.670601,-0.104620
15.261563,-18.631197,1.406543
15.261563,-18.585674,2.917707
15.261563,-18.534031,4.428870
15.261563,-18.476268,5.940034
15.261563,-18.412387,7.451197
15.261563,-18.342385,8.962360
15.261563,-18.266264,10.473524
14.309788,-18.895618,-12.193927
14.309788,-18.891296,-10.682764
14.309788,-18.880853,-9.171600
14.309788,-18.864292,-7.660437
14.309788,-18.841610,-6.149273
14.309788,-18.812810,-4.638110
14.309788,-18.777889,-3.126947
14.309788,-18.736850,-1.615783
14.309788,-18.689690,-0.104620
14.309788,-18.636412,1.406543
14.309788,-18.577013,2.917707
14.309788,-18.511496,4.428870
14.309788,-18.439858,5.940034
14.309788,-18.362102,7.451197
14.309788,-18.278225,8.962360
13.358014,-19.004428,-12.193927
13.358014,-18.986230,-10.682764
13.358014,-18.961913,-9.171600
13.358014,-18.931476,-7.660437
