-15.464371,-41.197872,-15.430399
-15.464371,-41.183975,-13.465251
-15.464371,-41.036205,-16.412974
-15.464371,-41.020158,-12.482677
-15.464371,-40.759728,-11.500103
-15.464371,-40.754430,-17.395548
-15.464371,-40.408761,-10.517529
-15.464371,-40.346876,-18.378122
-15.464371,-39.973411,-9.534955
-15.464371,-39.807951,-19.360696
-15.464371,-39.459915,-8.552381
-15.464371,-39.132145,-20.343270
-15.464371,-38.874591,-7.569807
-15.464371,-38.314027,-21.325844
-15.464371,-38.223837,-6.587233
-15.464371,-37.514129,-5.604659
-15.464371,-36.752029,-4.622085
-15.464371,-35.944174,-3.639511
-15.464371,-35.097286,-2.656937
-15.456806,-35.581285,-20.975545
-15.456806,-35.132719,-19.940456
-15.456806,-34.703418,-18.905367
-15.456806,-34.286546,-17.870278
-15.456806,-33.876558,-16.835188
-15.456806,-33.469199,-15.800099
-15.456806,-33.061506,-14.765010
-15.456806,-32.651807,-13.729921
-15.456806,-32.239720,-12.694831
-15.456806,-31.826156,-11.659742
-15.456806,-31.413314,-10.624653
-15.456806,-31.004688,-9.589563
-15.456806,-30.605059,-8.554474
-15.456806,-30.220502,-7.519385
-15.456806,-29.858382,-6.484296
-15.456806,-29.527354,-5.449206
-15.456806,-29.237365,-4.414117
-15.456806,-28.999655,-3.379028
-15.456806,-28.826751,-2.343939
-15.456806,-28.732474,-1.308849
-15.002121,-33.243574,0.407653
-14.581442,-41.244069,-14.514646
-14.581442,-41.229958,-13.579030
-14.581442,-41.151286,-15.450262
-14.581442,-41.115072,-12.643414
-14.581442,-40.945559,-16.385878
-14.581442,-40.905596,-11.707798
-14.581442,-40.620900,-17.321494
-14.581442,-40.607781,-10.772182
-14.581442,-40.227944,-9.836566
-14.581442,-40.171390,-18.257110
-14.581442,-39.772469,-8.900950
-14.581442,-39.591176,-19.192726
-14.581442,-39.247806,-7.965335
-14.581442,-38.874470,-20.128342
-14.581442,-38.660471,-7.029719
-14.581442,-38.017047,-6.094103
-14.581442,-37.324182,-5.158487
-14.581442,-36.588591,-4.222871
-14.581442,-35.817057,-3.287255
-14.581442,-35.016426,-2.351639
-14.579676,-35.153932,-19.627910
-14.579676,-34.736026,-18.633947
-14.579676,-34.326162,-17.639984
-14.579676,-33.919330,-16.646020
-14.579676,-33.511617,-15.652057
-14.579676,-33.100207,-14.658094
-14.579676,-32.683381,-13.664131
-14.579676,-32.260521,-12.670167
-14.579676,-31.832104,-11.676204
-14.579676,-31.399705,-10.682241
-14.579676,-30.965998,-9.688278
-14.579676,-30.534753,-8.694314
-14.579676,-30.110841,-7.700351
-14.579676,-29.700226,-6.706388
-14.579676,-29.309974,-5.712425
-14.579676,-28.948246,-4.718462
-14.579676,-28.624303,-3.724498
-14.579676,-28.348501,-2.730535
-14.579676,-28.132297,-1.736572
-14.579676,-27.988244,-0.742609
-13.863944,-27.650279,0.354925
-13.702545,-34.932865,-18.249644
-13.702545,-34.526581,-17.288239
-13.702545,-34.120083,-16.326833
-13.702545,-33.709824,-15.365427
-13.702545,-33.293217,-14.404021
-13.702545,-32.868635,-13.442615
-13.702545,-32.435414,-12.481210
-13.702545,-31.993849,-11.519804
-13.702545,-31.545197,-10.558398
-13.702545,-31.091674,-9.596992
-13.702545,-30.636459,-8.635586
-13.702545,-30.183692,-7.674181
-13.702545,-29.738470,-6.712775
-13.702545,-29.306857,-5.751369
-13.702545,-28.895872,-4.789963
-13.702545,-28.513498,-3.828557
-13.702545,-28.168679,-2.867151
-13.702545,-27.871319,-1.905746
-13.702545,-27.632282,-0.944340
-13.702545,-27.463394,0.017066
-13.698512,-41.292351,-13.459286
-13.698512,-41.286832,-14.361668
-13.698512,-41.197811,-12.556903
-13.698512,-41.174839,-15.264051
-13.698512,-41.009679,-11.654520
-13.698512,-40.950019,-16.166433
-13.698512,-40.734483,-10.752138
-13.698512,-40.606074,-17.068816
-13.698512,-40.378808,-9.849755
-13.698512,-40.136764,-17.971199
-13.698512,-39.949294,-8.947373
-13.698512,-39.535905,-18.873581
-13.698512,-39.452642,-8.044990
-13.698512,-38.895607,-7.142608
-13.698512,-38.285003,-6.240225
-13.698512,-37.627702,-5.337842
-13.698512,-36.930631,-4.435460
-13.698512,-36.200778,-3.533077
-13.698512,-35.445184,-2.630695
-13.698512,-34.670951,-1.728312
-12.825415,-34.912094,-16.939837
-12.825415,-34.500259,-15.997151
-12.825415,-34.082488,-15.054465
-12.825415,-33.656321,-14.111780
-12.825415,-33.220188,-13.169094
-12.825415,-32.773406,-12.226409
-12.825415,-32.316179,-11.283723
-12.825415,-31.849602,-10.341038
-12.825415,-31.375656,-9.398352
-12.825415,-30.897211,-8.455667
-12.825415,-30.418024,-7.512981
-12.825415,-29.942742,-6.570295
-12.825415,-29.476900,-5.627610
-12.825415,-29.026918,-4.684924
-12.825415,-28.600109,-3.742239
-12.825415,-28.204671,-2.799553
-12.825415,-27.849691,-1.856868
-12.825415,-27.545144,-0.914182
-12.825415,-27.301893,0.028503
-12.815583,-41.411625,-13.207280
-12.815583,-41.403691,-14.095738
-12.815583,-41.317185,-12.318822
-12.815583,-41.286376,-14.984196
-12.815583,-41.127433,-11.430364
-12.815583,-41.052725,-15.872654
-12.815583,-40.849487,-10.541906
-12.815583,-40.695838,-16.761112
-12.815583,-40.490515,-9.653448
-12.815583,-40.208869,-17.649569
-12.815583,-40.057741,-8.764990
-12.815583,-39.558444,-7.876532
-12.815583,-38.999954,-6.988074
-12.815583,-38.389658,-6.099616
-12.815583,-37.734994,-5.211158
-12.815583,-37.043456,-4.322700
-12.815583,-36.322592,-3.434242
-12.815583,-35.580002,-2.545784
-12.815583,-34.823341,-1.657326
-12.815583,-34.060319,-0.768868
-12.705116,-28.147086,0.478769
-11.948285,-35.088166,-15.780404
-11.948285,-34.657461,-14.840228
-11.948285,-34.216872,-13.900053
-11.948285,-33.764721,-12.959877
-11.948285,-33.300206,-12.019702
-11.948285,-32.823406,-11.079527
-11.948285,-32.335278,-10.139351
-11.948285,-31.837658,-9.199176
-11.948285,-31.333260,-8.259000
-11.948285,-30.825678,-7.318825
-11.948285,-30.319384,-6.378649
-11.948285,-29.819728,-5.438474
-11.948285,-29.332940,-4.498299
-11.948285,-28.866128,-3.558123
-11.948285,-28.427280,-2.617948
-11.948285,-28.025261,-1.677772
-11.948285,-27.669815,-0.737597
-11.948285,-27.371566,0.202578
-11.932653,-41.618213,-12.947745
-11.932653,-41.611468,-13.843540
-11.932653,-41.515452,-12.051950
-11.932653,-41.487124,-14.739336
-11.932653,-41.311334,-11.156155
-11.932653,-41.237141,-15.635131
-11.932653,-41.014063,-10.260359
-11.932653,-40.853539,-16.530926
-11.932653,-40.631901,-9.364564
-11.932653,-40.173164,-8.468769
-11.932653,-39.646223,-7.572974
-11.932653,-39.059507,-6.677178
-11.932653,-38.421499,-5.781383
-11.932653,-37.740738,-4.885588
-11.932653,-37.025819,-3.989793
-11.932653,-36.285392,-3.093997
-11.932653,-35.528165,-2.198202
-11.932653,-34.762898,-1.302407
-11.932653,-33.998410,-0.406611
-11.546288,-28.885581,0.442015
-11.071155,-35.463794,-14.836093
-11.071155,-35.005085,-13.882217
-11.071155,-34.533650,-12.928342
-11.071155,-34.048344,-11.974467
-11.071155,-33.548950,-11.020592
-11.071155,-33.036186,-10.066717
-11.071155,-32.511700,-9.112842
-11.071155,-31.978069,-8.158967
-11.071155,-31.438804,-7.205092
-11.071155,-30.898346,-6.251216
-11.071155,-30.362066,-5.297341
-11.071155,-29.836268,-4.343466
-11.071155,-29.328185,-3.389591
-11.071155,-28.845983,-2.435716
-11.071155,-28.398758,-1.481841
-11.071155,-27.996537,-0.527966
-11.049724,-41.943450,-12.808844
-11.049724,-41.924765,-13.732190
-11.049724,-41.838699,-11.885497
-11.049724,-41.772794,-14.655537
-11.049724,-41.620428,-10.962151
-11.049724,-41.477747,-15.578883
-11.049724,-41.298613,-10.038804
-11.049724,-40.883294,-9.115457
-11.049724,-40.384574,-8.192111
-11.049724,-39.812620,-7.268764
-11.049724,-39.177659,-6.345418
-11.049724,-38.489984,-5.422071
-11.049724,-37.759948,-4.498725
-11.049724,-36.997970,-3.575378
-11.049724,-36.214529,-2.652032
-11.049724,-35.420169,-1.728685
-11.049724,-34.625495,-0.805339
-11.049724,-33.841177,0.118008
-10.194024,-36.043249,-14.154480
-10.194024,-35.551483,-13.172546
-10.194024,-35.044830,-12.190613
-10.194024,-34.522447,-11.208679
-10.194024,-33.984536,-10.226746
-10.194024,-33.432344,-9.244812
-10.194024,-32.868165,-8.262879
-10.194024,-32.295338,-7.280945
-10.194024,-31.718247,-6.299012
-10.194024,-31.142322,-5.317078
-10.194024,-30.574040,-4.335145
-10.194024,-30.020920,-3.353211
-10.194024,-29.491529,-2.371278
-10.194024,-28.995481,-1.389345
-10.194024,-28.543432,-0.407411
-10.166794,-42.414504,-12.905901
-10.166794,-42.348399,-13.873593
-10.166794,-42.333885,-11.938209
-10.166794,-42.123115,-14.841285
-10.166794,-42.119078,-10.970517
-10.166794,-41.782692,-10.002825
-10.166794,-41.337413,-9.035133
-10.166794,-40.796002,-8.067441
-10.166794,-40.171298,-7.099748
-10.166794,-39.476212,-6.132056
-10.166794,-38.723735,-5.164364
-10.166794,-37.926932,-4.196672
-10.166794,-37.098943,-3.228980
-10.166794,-36.252985,-2.261288
-10.166794,-35.402351,-1.293596
-10.166794,-34.560409,-0.325904
-9.316894,-36.824257,-13.765970
-9.316894,-36.298269,-12.744800
-9.316894,-35.755802,-11.723629
-9.316894,-35.196032,-10.702458
-9.316894,-34.619361,-9.681288
-9.316894,-34.027411,-8.660117
-9.316894,-33.423029,-7.638947
-9.316894,-32.810285,-6.617776
-9.316894,-32.194471,-5.596605
-9.316894,-31.582101,-4.575435
-9.316894,-30.980916,-3.554264
-9.316894,-30.399875,-2.533093
-9.316894,-29.849164,-1.511923
-9.316894,-29.340189,-0.490752
-9.283865,-43.027550,-13.328920
-9.283865,-43.025775,-12.305250
-9.283865,-42.857383,-11.281579
-9.283865,-42.846572,-14.352590
-9.283865,-42.538604,-10.257909
-9.283865,-42.085763,-9.234239
-9.283865,-41.515280,-8.210569
-9.283865,-40.843672,-7.186899
-9.283865,-40.087548,-6.163229
-9.283865,-39.263614,-5.139559
-9.283865,-38.388669,-4.115889
-9.283865,-37.479610,-3.092219
-9.283865,-36.553427,-2.068549
-9.283865,-35.627204,-1.044879
-9.283865,-34.718123,-0.021209
-8.439764,-37.790750,-13.683800
-8.439764,-37.232741,-12.616199
-8.439764,-36.657484,-11.548599
-8.439764,-36.063779,-10.480998
-8.439764,-35.451885,-9.413398
-8.439764,-34.823524,-8.345797
-8.439764,-34.181881,-7.278197
-8.439764,-33.531598,-6.210596
-8.439764,-32.878780,-5.142996
-8.439764,-32.230994,-4.075395
-8.439764,-31.597266,-3.007795
-8.439764,-30.988085,-1.940194
-8.439764,-30.415399,-0.872593
-8.439764,-29.892619,0.195007
-8.400935,-43.875273,-13.048860
-8.400935,-43.833665,-11.963854
-8.400935,-43.702133,-14.133865
-8.400935,-43.598148,-10.878849
-8.400935,-43.189677,-9.793843
-8.400935,-42.629328,-8.708837
-8.400935,-41.938297,-7.623832
-8.400935,-41.137901,-6.538826
-8.400935,-40.249576,-5.453821
-8.400935,-39.294877,-4.368815
-8.400935,-38.295480,-3.283810
-8.400935,-37.273180,-2.198804
-8.400935,-36.249894,-1.113799
-8.400935,-35.247656,-0.028793
-8.069803,-31.579281,0.618330
-8.069803,-31.096452,1.589328
-8.069803,-30.712903,2.560325
-8.069803,-30.665588,6.444315
-8.069803,-30.451784,3.531322
-8.069803,-30.399794,5.473317
-8.069803,-30.338315,4.502320
-8.003181,-35.672416,0.862961
-8.003181,-34.581680,1.860347
-8.003181,-33.616707,2.857733
-8.003181,-32.812007,3.855119
-8.003181,-32.202267,4.852506
-8.003181,-31.822350,5.849892
-8.003181,-31.707298,6.847278
-7.562634,-38.909326,-13.904033
-7.562634,-38.323483,-12.787080
-7.562634,-37.721155,-11.670127
-7.562634,-37.100202,-10.553173
-7.562634,-36.460233,-9.436220
-7.562634,-35.802612,-8.319267
-7.562634,-35.130449,-7.202314
-7.562634,-34.448607,-6.085361
-7.562634,-33.763699,-4.968408
-7.562634,-33.084088,-3.851454
-7.562634,-32.419889,-2.734501
-7.562634,-31.782964,-1.617548
-7.562634,-31.186931,-0.500595
-7.518006,-44.942503,-13.047853
-7.518006,-44.904058,-11.902913
-7.518006,-44.724934,-14.192794
-7.518006,-44.635955,-10.757972
-7.518006,-44.164697,-9.613032
-7.518006,-43.516937,-8.468091
-7.518006,-42.719475,-7.323150
-7.518006,-41.799262,-6.178210
-7.518006,-40.783395,-5.033269
-7.518006,-39.699122,-3.888328
-7.518006,-38.573838,-2.743388
-7.518006,-37.435088,-1.598447
-7.518006,-36.310565,-0.453507
-6.910975,-32.645283,0.473063
-6.910975,-32.138812,1.480613
-6.910975,-31.732916,2.488164
-6.910975,-31.650499,6.518366
-6.910975,-31.452565,3.495715
-6.910975,-31.380380,5.510816
-6.910975,-31.325128,4.503265
-6.836691,-36.701457,0.788989
-6.836691,-35.486606,1.818104
-6.836691,-34.411249,2.847218
-6.836691,-33.515635,3.876333
-6.836691,-32.840209,4.905448
-6.836691,-32.425621,5.934562
-6.836691,-32.312722,6.963677
-6.685504,-40.130672,-14.405563
-6.685504,-39.520520,-13.240366
-6.685504,-38.897362,-12.075169
-6.685504,-38.257395,-10.909972
-6.685504,-37.598892,-9.744776
-6.685504,-36.922198,-8.579579
-6.685504,-36.229730,-7.414382
-6.685504,-35.525981,-6.249185
-6.685504,-34.817514,-5.083988
-6.685504,-34.112966,-3.918791
-6.685504,-33.423049,-2.753594
-6.685504,-32.760545,-1.588397
-6.685504,-32.140313,-0.423201
-6.635076,-46.279055,-12.129944
-6.635076,-46.251873,-13.326807
-6.635076,-46.031739,-10.933081
-6.635076,-45.917993,-14.523671
-6.635076,-45.542304,-9.736217
-6.635076,-44.843307,-8.539354
-6.635076,-43.967482,-7.342490
-6.635076,-42.947739,-6.145627
-6.635076,-41.817167,-4.948764
-6.635076,-40.609033,-3.751900
-6.635076,-39.356781,-2.555037
-6.635076,-38.094032,-1.358174
-6.635076,-36.854585,-0.161310
-5.752147,-42.643863,-13.401865
-5.752147,-41.973536,-12.363068
-5.752147,-41.311326,-11.324271
-5.752147,-40.647701,-10.285473
-5.752147,-39.975846,-9.246676
-5.752147,-39.291660,-8.207878
-5.752147,-38.593758,-7.169081
-5.752147,-37.883471,-6.130284
-5.752147,-37.164847,-5.091486
-5.752147,-36.444647,-4.052689
-5.752147,-35.732350,-3.013892
-5.752147,-35.040149,-1.975094
-5.752147,-34.382954,-0.936297
-5.752147,-33.778389,0.102500
-5.752147,-33.246795,1.141298
-5.752147,-32.811228,2.180095
-5.752147,-32.585410,6.335284
-5.752147,-32.497461,3.218892
-5.752147,-32.351990,5.296487
-5.752147,-32.333981,4.257690
-5.670201,-49.952433,-10.122759
-5.670201,-49.907904,-11.168369
-5.670201,-49.652332,-9.077148
-5.670201,-49.476738,-12.213979
-5.670201,-49.049826,-8.031538
-5.670201,-48.617139,-13.259589
-5.670201,-48.187351,-6.985928
-5.670201,-47.107562,-5.940318
-5.670201,-45.853323,-4.894708
-5.670201,-44.467716,-3.849098
-5.670201,-42.994036,-2.803488
-5.670201,-41.475795,-1.757878
-5.670201,-39.956714,-0.712268
-5.670201,-38.480735,0.333342
-5.670201,-37.092009,1.378952
-5.670201,-35.834904,2.424562
-5.670201,-34.754003,3.470172
-5.670201,-33.894102,4.515783
-5.670201,-33.300212,5.561393
-5.670201,-33.017558,6.607003
-4.593319,-43.818726,-14.274432
-4.593319,-43.092605,-13.209846
-4.593319,-42.394634,-12.145261
-4.593319,-41.711408,-11.080675
-4.593319,-41.032513,-10.016090
-4.593319,-40.350532,-8.951504
-4.593319,-39.661045,-7.886919
-4.593319,-38.962626,-6.822333
-4.593319,-38.256845,-5.757748
-4.593319,-37.548268,-4.693162
-4.593319,-36.844456,-3.628577
-4.593319,-36.155964,-2.563991
-4.593319,-35.496346,-1.499406
-4.593319,-34.882149,-0.434820
-4.593319,-34.332916,0.629765
-4.593319,-33.871186,1.694351
-4.593319,-33.522493,2.758936
-4.593319,-33.454912,5.952693
-4.593319,-33.315367,3.823522
-4.593319,-33.281333,4.888107
-4.503711,-52.369304,-10.940471
-4.503711,-52.320918,-9.895596
-4.503711,-52.016013,-11.985347
-4.503711,-51.915276,-8.850721
-4.503711,-51.216839,-13.030222
-4.503711,-51.197009,-7.805845
-4.503711,-50.210965,-6.760970
-4.503711,-49.927792,-14.075097
-4.503711,-49.002206,-5.716095
-4.503711,-47.616005,-4.671219
-4.503711,-46.097852,-3.626344
-4.503711,-44.493449,-2.581469
-4.503711,-42.848713,-1.536593
-4.503711,-41.209772,-0.491718
-4.503711,-39.622972,0.553157
-4.503711,-38.134870,1.598033
-4.503711,-36.792237,2.642908
-4.503711,-35.642059,3.687783
-4.503711,-34.731536,4.732659
-4.503711,-34.108079,5.777534
-3.434491,-44.863116,-15.167971
-3.434491,-44.049752,-14.081269
-3.434491,-43.291154,-12.994566
-3.434491,-42.569635,-11.907863
-3.434491,-41.870756,-10.821160
-3.434491,-41.183334,-9.734458
-3.434491,-40.499438,-8.647755
-3.434491,-39.814387,-7.561052
-3.434491,-39.126755,-6.474349
-3.434491,-38.438367,-5.387647
-3.434491,-37.754299,-4.300944
-3.434491,-37.082882,-3.214241
-3.434491,-36.435699,-2.127538
-3.434491,-35.827583,-1.040836
-3.434491,-35.276621,0.045867
-3.434491,-34.804153,1.132570
-3.434491,-34.434770,2.219272
-3.434491,-34.239829,5.479381
-3.434491,-34.196315,3.305975
-3.434491,-34.119885,4.392678
-3.337221,-55.249132,-10.878114
-3.337221,-55.158549,-9.850981
-3.337221,-54.929352,-11.905247
-3.337221,-54.702141,-8.823847
-3.337221,-54.154876,-12.932381
-3.337221,-53.924640,-7.796714
-3.337221,-52.881568,-13.959514
-3.337221,-52.870983,-6.769581
-3.337221,-51.586302,-5.742447
-3.337221,-51.065491,-14.986647
-3.337221,-50.115931,-4.715314
-3.337221,-48.505404,-3.688181
-3.337221,-46.800454,-2.661047
-3.337221,-45.047014,-1.633914
-3.337221,-43.291215,-0.606781
-3.337221,-41.579390,0.420353
-3.337221,-39.958070,1.447486
-3.337221,-38.473988,2.474619
-3.337221,-37.174074,3.501753
-3.337221,-36.105458,4.528886
-2.275662,-45.698670,-15.993351
-2.275662,-44.761346,-14.884039
-2.275662,-43.911002,-13.774728
-2.275662,-43.125395,-12.665416
-2.275662,-42.385814,-11.556104
-2.275662,-41.677078,-10.446793
-2.275662,-40.987540,-9.337481
-2.275662,-40.309082,-8.228169
-2.275662,-39.637119,-7.118858
-2.275662,-38.970597,-6.009546
-2.275662,-38.311994,-4.900234
-2.275662,-37.667319,-3.790923
-2.275662,-37.046112,-2.681611
-2.275662,-36.461447,-1.572299
-2.275662,-35.929928,-0.462988
-2.275662,-35.471689,0.646324
-2.275662,-35.110398,1.755636
-2.275662,-34.897856,5.083571
-2.275662,-34.873253,2.864947
-2.275662,-34.790985,3.974259
-2.170731,-58.615173,-10.956944
-2.170731,-58.532114,-9.961593
-2.170731,-58.285277,-11.952296
-2.170731,-58.078730,-8.966241
-2.170731,-57.499972,-12.947648
-2.170731,-57.297829,-7.970890
-2.170731,-56.232394,-6.975538
-2.170731,-56.216977,-13.942999
-2.170731,-54.925583,-5.980186
-2.170731,-54.394191,-14.938351
-2.170731,-53.420733,-4.984835
-2.170731,-51.989687,-15.933703
-2.170731,-51.761354,-3.989483
-2.170731,-49.991133,-2.994131
-2.170731,-48.153934,-1.998780
-2.170731,-46.293797,-1.003428
-2.170731,-44.454937,-0.008076
-2.170731,-42.681746,0.987275
-2.170731,-41.018792,1.982627
-2.170731,-39.510818,2.977978
-1.116834,-46.191543,-16.647130
-1.116834,-45.097422,-15.507745
-1.116834,-44.126694,-14.368360
-1.116834,-43.252177,-13.228974
-1.116834,-42.450614,-12.089589
-1.116834,-41.702683,-10.950204
-1.116834,-40.992989,-9.810819
-1.116834,-40.310071,-8.671433
-1.116834,-39.646394,-7.532048
-1.116834,-38.998357,-6.392663
-1.116834,-38.366287,-5.253278
-1.116834,-37.754444,-4.113893
-1.116834,-37.171016,-2.974507
-1.116834,-36.628121,-1.835122
-1.116834,-36.141811,-0.695737
-1.116834,-35.732063,0.443648
-1.116834,-35.422790,1.583034
-1.116834,-35.395871,5.001189
-1.116834,-35.241831,2.722419
-1.116834,-35.220958,3.861804
-1.004242,-62.527158,-11.109969
-1.004242,-62.479113,-10.154202
-1.004242,-62.164725,-12.065736
-1.004242,-62.060186,-9.198435
-1.004242,-61.352372,-13.021503
-1.004242,-61.310119,-8.242668
-1.004242,-60.268808,-7.286901
-1.004242,-60.050802,-13.977270
-1.004242,-58.976295,-6.331134
-1.004242,-58.220870,-14.933037
-1.004242,-57.472772,-5.375367
-1.004242,-55.823582,-15.888804
-1.004242,-55.798583,-4.419600
-1.004242,-53.994221,-3.463833
-1.004242,-52.820091,-16.844571
-1.004242,-52.100326,-2.508066
-1.004242,-50.157692,-1.552299
-1.004242,-48.207259,-0.596532
-1.004242,-46.290118,0.359235
-1.004242,-44.447511,1.315002
-0.162248,-67.059438,-11.207534
-0.162248,-67.019683,-10.289125
-0.162248,-66.693581,-12.125944
-0.162248,-66.611095,-9.370715
-0.162248,-65.885459,-13.044354
-0.162248,-65.870581,-8.452305
-0.162248,-64.835177,-7.533895
-0.162248,-64.598548,-13.962764
-0.162248,-63.542046,-6.615486
-0.162248,-62.796451,-14.881174
-0.162248,-62.028478,-5.697076
-0.162248,-60.442898,-15.799583
-0.162248,-60.331891,-4.778666
-0.162248,-58.489829,-3.860256
-0.162248,-57.501748,-16.717993
-0.162248,-56.539968,-2.941846
-0.162248,-54.520107,-2.023437
-0.162248,-53.936986,-17.636403
-0.162248,-52.468175,-1.105027
-0.162248,-50.422228,-0.186617
-0.041994,-46.120131,-17.011558
-0.041994,-44.851314,-15.824416
-0.041994,-43.745445,-14.637274
-0.041994,-42.769523,-13.450132
-0.041994,-41.895176,-12.262990
-0.041994,-41.098665,-11.075848
-0.041994,-40.360885,-9.888707
-0.041994,-39.667359,-8.701565
-0.041994,-39.008244,-7.514423
-0.041994,-38.378330,-6.327281
-0.041994,-37.777038,-5.140139
-0.041994,-37.208419,-3.952997
-0.041994,-36.681159,-2.765855
-0.041994,-36.208574,-1.578713
-0.041994,-35.850601,5.544139
-0.041994,-35.808614,-0.391571
-0.041994,-35.503857,0.795571
-0.041994,-35.456097,4.356997
-0.041994,-35.321517,1.982713
-0.041994,-35.293438,3.169855
0.041994,-46.120131,-17.011558
0.041994,-44.851314,-15.824416
0.041994,-43.745445,-14.637274
0.041994,-42.769523,-13.450132
0.041994,-41.895176,-12.262990
0.041994,-41.098665,-11.075848
0.041994,-40.360885,-9.888707
0.041994,-39.667359,-8.701565
0.041994,-39.008244,-7.514423
0.041994,-38.378330,-6.327281
0.041994,-37.777038,-5.140139
0.041994,-37.208419,-3.952997
0.041994,-36.681159,-2.765855
0.041994,-36.208574,-1.578713
0.041994,-35.850601,5.544139
0.041994,-35.808614,-0.391571
0.041994,-35.503857,0.795571
0.041994,-35.456097,4.356997
0.041994,-35.321517,1.982713
0.041994,-35.293438,3.169855
0.162248,-67.059438,-11.207534
0.162248,-67.019683,-10.289125
0.162248,-66.693581,-12.125944
0.162248,-66.611095,-9.370715
0.162248,-65.885459,-13.044354
0.162248,-65.870581,-8.452305
0.162248,-64.835177,-7.533895
0.162248,-64.598548,-13.962764
0.162248,-63.542046,-6.615486
0.162248,-62.796451,-14.881174
0.162248,-62.028478,-5.697076
0.162248,-60.442898,-15.799583
0.162248,-60.331891,-4.778666
0.162248,-58.489829,-3.860256
0.162248,-57.501748,-16.717993
0.162248,-56.539968,-2.941846
0.162248,-54.520107,-2.023437
0.162248,-53.936986,-17.636403
0.162248,-52.468175,-1.105027
0.162248,-50.422228,-0.186617
1.004242,-62.527158,-11.109969
1.004242,-62.479113,-10.154202
1.004242,-62.164725,-12.065736
1.004242,-62.060186,-9.198435
1.004242,-61.352372,-13.021503
1.004242,-61.310119,-8.242668
1.004242,-60.268808,-7.286901
1.004242,-60.050802,-13.977270
1.004242,-58.976295,-6.331134
1.004242,-58.220870,-14.933037
1.004242,-57.472772,-5.375367
1.004242,-55.823582,-15.888804
1.004242,-55.798583,-4.419600
1.004242,-53.994221,-3.463833
1.004242,-52.820091,-16.844571
1.004242,-52.100326,-2.508066
1.004242,-50.157692,-1.552299
1.004242,-48.207259,-0.596532
1.004242,-46.290118,0.359235
1.004242,-44.447511,1.315002
1.116834,-46.191543,-16.647130
1.116834,-45.097422,-15.507745
1.116834,-44.126694,-14.368360
1.116834,-43.252177,-13.228974
1.116834,-42.450614,-12.089589
1.116834,-41.702683,-10.950204
1.116834,-40.992989,-9.810819
1.116834,-40.310071,-8.671433
1.116834,-39.646394,-7.532048
1.116834,-38.998357,-6.392663
1.116834,-38.366287,-5.253278
1.116834,-37.754444,-4.113893
1.116834,-37.171016,-2.974507
1.116834,-36.628121,-1.835122
1.116834,-36.141811,-0.695737
1.116834,-35.732063,0.443648
1.116834,-35.422790,1.583034
1.116834,-35.395871,5.001189
1.116834,-35.241831,2.722419
1.116834,-35.220958,3.861804
2.170731,-58.615173,-10.956944
2.170731,-58.532114,-9.961593
2.170731,-58.285277,-11.952296
2.170731,-58.078730,-8.966241
2.170731,-57.499972,-12.947648
2.170731,-57.297829,-7.970890
2.170731,-56.232394,-6.975538
2.170731,-56.216977,-13.942999
2.170731,-54.925583,-5.980186
2.170731,-54.394191,-14.938351
2.170731,-53.420733,-4.984835
2.170731,-51.989687,-15.933703
2.170731,-51.761354,-3.989483
2.170731,-49.991133,-2.994131
2.170731,-48.153934,-1.998780
2.170731,-46.293797,-1.003428
2.170731,-44.454937,-0.008076
2.170731,-42.681746,0.987275
2.170731,-41.018792,1.982627
2.170731,-39.510818,2.977978
2.275662,-45.698670,-15.993351
2.275662,-44.761346,-14.884039
2.275662,-43.911002,-13.774728
2.275662,-43.125395,-12.665416
2.275662,-42.385814,-11.556104
2.275662,-41.677078,-10.446793
2.275662,-40.987540,-9.337481
2.275662,-40.309082,-8.228169
2.275662,-39.637119,-7.118858
2.275662,-38.970597,-6.009546
2.275662,-38.311994,-4.900234
2.275662,-37.667319,-3.790923
2.275662,-37.046112,-2.681611
2.275662,-36.461447,-1.572299
2.275662,-35.929928,-0.462988
2.275662,-35.471689,0.646324
2.275662,-35.110398,1.755636
2.275662,-34.897856,5.083571
2.275662,-34.873253,2.864947
2.275662,-34.790985,3.974259
3.337221,-55.249132,-10.878114
3.337221,-55.158549,-9.850981
3.337221,-54.929352,-11.905247
3.337221,-54.702141,-8.823847
3.337221,-54.154876,-12.932381
3.337221,-53.924640,-7.796714
3.337221,-52.881568,-13.959514
3.337221,-52.870983,-6.769581
3.337221,-51.586302,-5.742447
3.337221,-51.065491,-14.986647
3.337221,-50.115931,-4.715314
3.337221,-48.505404,-3.688181
3.337221,-46.800454,-2.661047
3.337221,-45.047014,-1.633914
3.337221,-43.291215,-0.606781
3.337221,-41.579390,0.420353
3.337221,-39.958070,1.447486
3.337221,-38.473988,2.474619
3.337221,-37.174074,3.501753
3.337221,-36.105458,4.528886
3.434491,-44.863116,-15.167971
3.434491,-44.049752,-14.081269
3.434491,-43.291154,-12.994566
3.434491,-42.569635,-11.907863
3.434491,-41.870756,-10.821160
3.434491,-41.183334,-9.734458
3.434491,-40.499438,-8.647755
3.434491,-39.814387,-7.561052
3.434491,-39.126755,-6.474349
3.434491,-38.438367,-5.387647
3.434491,-37.754299,-4.300944
3.434491,-37.082882,-3.214241
3.434491,-36.435699,-2.127538
3.434491,-35.827583,-1.040836
3.434491,-35.276621,0.045867
3.434491,-34.804153,1.132570
3.434491,-34.434770,2.219272
3.434491,-34.239829,5.479381
3.434491,-34.196315,3.305975
3.434491,-34.119885,4.392678
4.503711,-52.369304,-10.940471
4.503711,-52.320918,-9.895596
4.503711,-52.016013,-11.985347
4.503711,-51.915276,-8.850721
4.503711,-51.216839,-13.030222
4.503711,-51.197009,-7.805845
4.503711,-50.210965,-6.760970
4.503711,-49.927792,-14.075097
4.503711,-49.002206,-5.716095
4.503711,-47.616005,-4.671219
4.503711,-46.097852,-3.626344
4.503711,-44.493449,-2.581469
4.503711,-42.848713,-1.536593
4.503711,-41.209772,-0.491718
4.503711,-39.622972,0.553157
4.503711,-38.134870,1.598033
4.503711,-36.792237,2.642908
4.503711,-35.642059,3.687783
4.503711,-34.731536,4.732659
4.503711,-34.108079,5.777534
4.593319,-43.818726,-14.274432
4.593319,-43.092605,-13.209846
4.593319,-42.394634,-12.145261
4.593319,-41.711408,-11.080675
4.593319,-41.032513,-10.016090
4.593319,-40.350532,-8.951504
4.593319,-39.661045,-7.886919
4.593319,-38.962626,-6.822333
4.593319,-38.256845,-5.757748
4.593319,-37.548268,-4.693162
4.593319,-36.844456,-3.628577
4.593319,-36.155964,-2.563991
4.593319,-35.496346,-1.499406
4.593319,-34.882149,-0.434820
4.593319,-34.332916,0.629765
4.593319,-33.871186,1.694351
4.593319,-33.522493,2.758936
4.593319,-33.454912,5.952693
4.593319,-33.315367,3.823522
4.593319,-33.281333,4.888107
5.670201,-49.952433,-10.122759
5.670201,-49.907904,-11.168369
5.670201,-49.652332,-9.077148
5.670201,-49.476738,-12.213979
5.670201,-49.049826,-8.031538
5.670201,-48.617139,-13.259589
5.670201,-48.187351,-6.985928
5.670201,-47.107562,-5.940318
5.670201,-45.853323,-4.894708
5.670201,-44.467716,-3.849098
5.670201,-42.994036,-2.803488
5.670201,-41.475795,-1.757878
5.670201,-39.956714,-0.712268
5.670201,-38.480735,0.333342
5.670201,-37.092009,1.378952
5.670201,-35.834904,2.424562
5.670201,-34.754003,3.470172
5.670201,-33.894102,4.515783
5.670201,-33.300212,5.561393
5.670201,-33.017558,6.607003
5.752147,-42.643863,-13.401865
5.752147,-41.973536,-12.363068
5.752147,-41.311326,-11.324271
5.752147,-40.647701,-10.285473
5.752147,-39.975846,-9.246676
5.752147,-39.291660,-8.207878
5.752147,-38.593758,-7.169081
5.752147,-37.883471,-6.130284
5.752147,-37.164847,-5.091486
5.752147,-36.444647,-4.052689
5.752147,-35.732350,-3.013892
5.752147,-35.040149,-1.975094
5.752147,-34.382954,-0.936297
5.752147,-33.778389,0.102500
5.752147,-33.246795,1.141298
5.752147,-32.811228,2.180095
5.752147,-32.585410,6.335284
5.752147,-32.497461,3.218892
5.752147,-32.351990,5.296487
5.752147,-32.333981,4.257690
6.635076,-46.279055,-12.129944
6.635076,-46.251873,-13.326807
6.635076,-46.031739,-10.933081
6.635076,-45.917993,-14.523671
6.635076,-45.542304,-9.736217
6.635076,-44.843307,-8.539354
6.635076,-43.967482,-7.342490
6.635076,-42.947739,-6.145627
6.635076,-41.817167,-4.948764
6.635076,-40.609033,-3.751900
6.635076,-39.356781,-2.555037
6.635076,-38.094032,-1.358174
6.635076,-36.854585,-0.161310
6.685504,-40.130672,-14.405563
6.685504,-39.520520,-13.240366
6.685504,-38.897362,-12.075169
6.685504,-38.257395,-10.909972
6.685504,-37.598892,-9.744776
6.685504,-36.922198,-8.579579
6.685504,-36.229730,-7.414382
6.685504,-35.525981,-6.249185
6.685504,-34.817514,-5.083988
6.685504,-34.112966,-3.918791
6.685504,-33.423049,-2.753594
6.685504,-32.760545,-1.588397
6.685504,-32.140313,-0.423201
6.836691,-36.701457,0.788989
6.836691,-35.486606,1.818104
6.836691,-34.411249,2.847218
6.836691,-33.515635,3.876333
6.836691,-32.840209,4.905448
6.836691,-32.425621,5.934562
6.836691,-32.312722,6.963677
6.910975,-32.645283,0.473063
6.910975,-32.138812,1.480613
6.910975,-31.732916,2.488164
6.910975,-31.650499,6.518366
6.910975,-31.452565,3.495715
6.910975,-31.380380,5.510816
6.910975,-31.325128,4.503265
7.518006,-44.942503,-13.047853
7.518006,-44.904058,-11.902913
7.518006,-44.724934,-14.192794
7.518006,-44.635955,-10.757972
7.518006,-44.164697,-9.613032
7.518006,-43.516937,-8.468091
7.518006,-42.719475,-7.323150
7.518006,-41.799262,-6.178210
7.518006,-40.783395,-5.033269
7.518006,-39.699122,-3.888328
7.518006,-38.573838,-2.743388
7.518006,-37.435088,-1.598447
7.518006,-36.310565,-0.453507
7.562634,-38.909326,-13.904033
7.562634,-38.323483,-12.787080
7.562634,-37.721155,-11.670127
7.562634,-37.100202,-10.553173
7.562634,-36.460233,-9.436220
7.562634,-35.802612,-8.319267
7.562634,-35.130449,-7.202314
7.562634,-34.448607,-6.085361
7.562634,-33.763699,-4.968408
7.562634,-33.084088,-3.851454
7.562634,-32.419889,-2.734501
7.562634,-31.782964,-1.617548
7.562634,-31.186931,-0.500595
8.003181,-35.672416,0.862961
8.003181,-34.581680,1.860347
8.003181,-33.616707,2.857733
8.003181,-32.812007,3.855119
8.003181,-32.202267,4.852506
8.003181,-31.822350,5.849892
8.003181,-31.707298,6.847278
8.069803,-31.579281,0.618330
8.069803,-31.096452,1.589328
8.069803,-30.712903,2.560325
8.069803,-30.665588,6.444315
8.069803,-30.451784,3.531322
8.069803,-30.399794,5.473317
8.069803,-30.338315,4.502320
8.400935,-43.875273,-13.048860
8.400935,-43.833665,-11.963854
8.400935,-43.702133,-14.133865
8.400935,-43.598148,-10.878849
8.400935,-43.189677,-9.793843
8.400935,-42.629328,-8.708837
8.400935,-41.938297,-7.623832
8.400935,-41.137901,-6.538826
8.400935,-40.249576,-5.453821
8.400935,-39.294877,-4.368815
8.400935,-38.295480,-3.283810
8.400935,-37.273180,-2.198804
8.400935,-36.249894,-1.113799
8.400935,-35.247656,-0.028793
8.439764,-37.790750,-13.683800
8.439764,-37.232741,-12.616199
8.439764,-36.657484,-11.548599
8.439764,-36.063779,-10.480998
8.439764,-35.451885,-9.413398
8.439764,-34.823524,-8.345797
8.439764,-34.181881,-7.278197
8.439764,-33.531598,-6.210596
8.439764,-32.878780,-5.142996
8.439764,-32.230994,-4.075395
8.439764,-31.597266,-3.007795
8.439764,-30.988085,-1.940194
8.439764,-30.415399,-0.872593
8.439764,-29.892619,0.195007
9.169671,-35.228110,0.576195
9.169671,-34.215714,1.530312
9.169671,-33.301516,2.484429
9.169671,-32.513803,3.438547
9.169671,-31.881011,4.392664
9.169671,-31.431727,5.346781
9.169671,-31.194683,6.300898
9.228632,-30.647153,0.513632
9.228632,-30.180747,1.444426
9.228632,-29.806579,2.375221
9.228632,-29.670891,6.098398
9.228632,-29.545267,3.306015
9.228632,-29.452429,5.167603
9.228632,-29.419178,4.236809
9.283865,-43.027550,-13.328920
9.283865,-43.025775,-12.305250
9.283865,-42.857383,-11.281579
9.283865,-42.846572,-14.352590
9.283865,-42.538604,-10.257909
9.283865,-42.085763,-9.234239
9.283865,-41.515280,-8.210569
9.283865,-40.843672,-7.186899
9.283865,-40.087548,-6.163229
9.283865,-39.263614,-5.139559
9.283865,-38.388669,-4.115889
9.283865,-37.479610,-3.092219
9.283865,-36.553427,-2.068549
9.283865,-35.627204,-1.044879
9.283865,-34.718123,-0.021209
9.316894,-36.824257,-13.765970
9.316894,-36.298269,-12.744800
9.316894,-35.755802,-11.723629
9.316894,-35.196032,-10.702458
9.316894,-34.619361,-9.681288
9.316894,-34.027411,-8.660117
9.316894,-33.423029,-7.638947
9.316894,-32.810285,-6.617776
9.316894,-32.194471,-5.596605
9.316894,-31.582101,-4.575435
9.316894,-30.980916,-3.554264
9.316894,-30.399875,-2.533093
9.316894,-29.849164,-1.511923
9.316894,-29.340189,-0.490752
10.166794,-42.414504,-12.905901
10.166794,-42.348399,-13.873593
10.166794,-42.333885,-11.938209
10.166794,-42.123115,-14.841285
10.166794,-42.119078,-10.970517
10.166794,-41.782692,-10.002825
10.166794,-41.337413,-9.035133
10.166794,-40.796002,-8.067441
10.166794,-40.171298,-7.099748
10.166794,-39.476212,-6.132056
10.166794,-38.723735,-5.164364
10.166794,-37.926932,-4.196672
10.166794,-37.098943,-3.228980
10.166794,-36.252985,-2.261288
10.166794,-35.402351,-1.293596
10.166794,-34.560409,-0.325904
10.194024,-36.043249,-14.154480
10.194024,-35.551483,-13.172546
10.194024,-35.044830,-12.190613
10.194024,-34.522447,-11.208679
10.194024,-33.984536,-10.226746
10.194024,-33.432344,-9.244812
10.194024,-32.868165,-8.262879
10.194024,-32.295338,-7.280945
10.194024,-31.718247,-6.299012
10.194024,-31.142322,-5.317078
10.194024,-30.574040,-4.335145
10.194024,-30.020920,-3.353211
10.194024,-29.491529,-2.371278
10.194024,-28.995481,-1.389345
10.194024,-28.543432,-0.407411
10.336161,-34.288622,0.880177
10.336161,-33.395067,1.784348
10.336161,-32.589386,2.688520
10.336161,-31.894095,3.592691
10.336161,-31.331827,4.496862
10.336161,-30.925338,5.401034
10.387460,-29.434616,1.052173
10.387460,-29.057723,1.941840
10.387460,-28.779732,2.831507
10.387460,-28.739021,5.500509
10.387460,-28.619897,3.721174
10.387460,-28.598935,4.610841
11.049724,-41.943450,-12.808844
11.049724,-41.924765,-13.732190
11.049724,-41.838699,-11.885497
11.049724,-41.772794,-14.655537
11.049724,-41.620428,-10.962151
11.049724,-41.477747,-15.578883
11.049724,-41.298613,-10.038804
11.049724,-40.883294,-9.115457
11.049724,-40.384574,-8.192111
11.049724,-39.812620,-7.268764
11.049724,-39.177659,-6.345418
11.049724,-38.489984,-5.422071
11.049724,-37.759948,-4.498725
11.049724,-36.997970,-3.575378
11.049724,-36.214529,-2.652032
11.049724,-35.420169,-1.728685
11.049724,-34.625495,-0.805339
11.049724,-33.841177,0.118008
11.071155,-35.463794,-14.836093
11.071155,-35.005085,-13.882217
11.071155,-34.533650,-12.928342
11.071155,-34.048344,-11.974467
11.071155,-33.548950,-11.020592
11.071155,-33.036186,-10.066717
11.071155,-32.511700,-9.112842
11.071155,-31.978069,-8.158967
11.071155,-31.438804,-7.205092
11.071155,-30.898346,-6.251216
11.071155,-30.362066,-5.297341
11.071155,-29.836268,-4.343466
11.071155,-29.328185,-3.389591
11.071155,-28.845983,-2.435716
11.071155,-28.398758,-1.481841
11.071155,-27.996537,-0.527966
11.502651,-33.843458,0.835384
11.502651,-33.020580,1.688442
11.502651,-32.266955,2.541501
11.502651,-31.600142,3.394559
11.502651,-31.037797,4.247618
11.546288,-28.885581,0.442015
11.546288,-28.499193,1.292991
11.546288,-28.196101,2.143966
11.546288,-27.992604,2.994942
11.546288,-27.955710,4.696893
11.546288,-27.906226,3.845918
11.932653,-41.618213,-12.947745
11.932653,-41.611468,-13.843540
11.932653,-41.515452,-12.051950
11.932653,-41.487124,-14.739336
11.932653,-41.311334,-11.156155
11.932653,-41.237141,-15.635131
11.932653,-41.014063,-10.260359
11.932653,-40.853539,-16.530926
11.932653,-40.631901,-9.364564
11.932653,-40.173164,-8.468769
11.932653,-39.646223,-7.572974
11.932653,-39.059507,-6.677178
11.932653,-38.421499,-5.781383
11.932653,-37.740738,-4.885588
11.932653,-37.025819,-3.989793
11.932653,-36.285392,-3.093997
11.932653,-35.528165,-2.198202
11.932653,-34.762898,-1.302407
11.932653,-33.998410,-0.406611
11.948285,-35.088166,-15.780404
11.948285,-34.657461,-14.840228
11.948285,-34.216872,-13.900053
11.948285,-33.764721,-12.959877
11.948285,-33.300206,-12.019702
11.948285,-32.823406,-11.079527
11.948285,-32.335278,-10.139351
11.948285,-31.837658,-9.199176
11.948285,-31.333260,-8.259000
11.948285,-30.825678,-7.318825
11.948285,-30.319384,-6.378649
11.948285,-29.819728,-5.438474
11.948285,-29.332940,-4.498299
11.948285,-28.866128,-3.558123
11.948285,-28.427280,-2.617948
11.948285,-28.025261,-1.677772
11.948285,-27.669815,-0.737597
11.948285,-27.371566,0.202578
12.669141,-33.740603,0.534824
12.669141,-32.956454,1.341234
12.669141,-32.221558,2.147644
12.669141,-31.549587,2.954054
12.705116,-28.147086,0.478769
12.705116,-27.819193,1.297047
12.705116,-27.573547,2.115324
12.705116,-27.424988,2.933602
12.705116,-27.389401,3.751880
12.815583,-41.411625,-13.207280
12.815583,-41.403691,-14.095738
12.815583,-41.317185,-12.318822
12.815583,-41.286376,-14.984196
12.815583,-41.127433,-11.430364
12.815583,-41.052725,-15.872654
12.815583,-40.849487,-10.541906
12.815583,-40.695838,-16.761112
12.815583,-40.490515,-9.653448
12.815583,-40.208869,-17.649569
12.815583,-40.057741,-8.764990
12.815583,-39.558444,-7.876532
12.815583,-38.999954,-6.988074
12.815583,-38.389658,-6.099616
12.815583,-37.734994,-5.211158
12.815583,-37.043456,-4.322700
12.815583,-36.322592,-3.434242
12.815583,-35.580002,-2.545784
12.815583,-34.823341,-1.657326
12.815583,-34.060319,-0.768868
12.825415,-34.912094,-16.939837
12.825415,-34.500259,-15.997151
12.825415,-34.082488,-15.054465
12.825415,-33.656321,-14.111780
12.825415,-33.220188,-13.169094
12.825415,-32.773406,-12.226409
12.825415,-32.316179,-11.283723
12.825415,-31.849602,-10.341038
12.825415,-31.375656,-9.398352
12.825415,-30.897211,-8.455667
12.825415,-30.418024,-7.512981
12.825415,-29.942742,-6.570295
12.825415,-29.476900,-5.627610
12.825415,-29.026918,-4.684924
12.825415,-28.600109,-3.742239
12.825415,-28.204671,-2.799553
12.825415,-27.849691,-1.856868
12.825415,-27.545144,-0.914182
12.825415,-27.301893,0.028503
13.698512,-41.292351,-13.459286
13.698512,-41.286832,-14.361668
13.698512,-41.197811,-12.556903
13.698512,-41.174839,-15.264051
13.698512,-41.009679,-11.654520
13.698512,-40.950019,-16.166433
13.698512,-40.734483,-10.752138
13.698512,-40.606074,-17.068816
13.698512,-40.378808,-9.849755
13.698512,-40.136764,-17.971199
13.698512,-39.949294,-8.947373
13.698512,-39.535905,-18.873581
13.698512,-39.452642,-8.044990
13.698512,-38.895607,-7.142608
13.698512,-38.285003,-6.240225
13.698512,-37.627702,-5.337842
13.698512,-36.930631,-4.435460
13.698512,-36.200778,-3.533077
13.698512,-35.445184,-2.630695
13.698512,-34.670951,-1.728312
13.702545,-34.932865,-18.249644
13.702545,-34.526581,-17.288239
13.702545,-34.120083,-16.326833
13.702545,-33.709824,-15.365427
13.702545,-33.293217,-14.404021
13.702545,-32.868635,-13.442615
13.702545,-32.435414,-12.481210
13.702545,-31.993849,-11.519804
13.702545,-31.545197,-10.558398
13.702545,-31.091674,-9.596992
13.702545,-30.636459,-8.635586
13.702545,-30.183692,-7.674181
13.702545,-29.738470,-6.712775
13.702545,-29.306857,-5.751369
13.702545,-28.895872,-4.789963
13.702545,-28.513498,-3.828557
13.702545,-28.168679,-2.867151
13.702545,-27.871319,-1.905746
13.702545,-27.632282,-0.944340
13.702545,-27.463394,0.017066
13.835631,-33.077946,0.867795
13.835631,-32.346597,1.637251
13.863944,-27.650279,0.354925
13.863944,-27.371874,1.149820
13.863944,-27.174142,1.944716
13.863944,-27.070835,2.739612
14.579676,-35.153932,-19.627910
14.579676,-34.736026,-18.633947
14.579676,-34.326162,-17.639984
14.579676,-33.919330,-16.646020
14.579676,-33.511617,-15.652057
14.579676,-33.100207,-14.658094
14.579676,-32.683381,-13.664131
14.579676,-32.260521,-12.670167
14.579676,-31.832104,-11.676204
14.579676,-31.399705,-10.682241
14.579676,-30.965998,-9.688278
14.579676,-30.534753,-8.694314
14.579676,-30.110841,-7.700351
14.579676,-29.700226,-6.706388
14.579676,-29.309974,-5.712425
14.579676,-28.948246,-4.718462
14.579676,-28.624303,-3.724498
14.579676,-28.348501,-2.730535
14.579676,-28.132297,-1.736572
14.579676,-27.988244,-0.742609
14.581442,-41.244069,-14.514646
14.581442,-41.229958,-13.579030
14.581442,-41.151286,-15.450262
14.581442,-41.115072,-12.643414
14.581442,-40.945559,-16.385878
14.581442,-40.905596,-11.707798
14.581442,-40.620900,-17.321494
14.581442,-40.607781,-10.772182
14.581442,-40.227944,-9.836566
14.581442,-40.171390,-18.257110
14.581442,-39.772469,-8.900950
14.581442,-39.591176,-19.192726
14.581442,-39.247806,-7.965335
14.581442,-38.874470,-20.128342
14.581442,-38.660471,-7.029719
14.581442,-38.017047,-6.094103
14.581442,-37.324182,-5.158487
14.581442,-36.588591,-4.222871
14.581442,-35.817057,-3.287255
14.581442,-35.016426,-2.351639
15.002121,-33.243574,0.407653
15.456806,-35.581285,-20.975545
15.456806,-35.132719,-19.940456
15.456806,-34.703418,-18.905367
15.456806,-34.286546,-17.870278
15.456806,-33.876558,-16.835188
15.456806,-33.469199,-15.800099
15.456806,-33.061506,-14.765010
15.456806,-32.651807,-13.729921
15.456806,-32.239720,-12.694831
15.456806,-31.826156,-11.659742
15.456806,-31.413314,-10.624653
15.456806,-31.004688,-9.589563
15.456806,-30.605059,-8.554474
15.456806,-30.220502,-7.519385
15.456806,-29.858382,-6.484296
15.456806,-29.527354,-5.449206
15.456806,-29.237365,-4.414117
15.456806,-28.999655,-3.379028
15.456806,-28.826751,-2.343939
15.456806,-28.732474,-1.308849
15.464371,-41.245184,-14.447825
15.464371,-41.197872,-15.430399
15.464371,-41.183975,-13.465251
15.464371,-41.036205,-16.412974
15.464371,-41.020158,-12.482677
15.464371,-40.759728,-11.500103
15.464371,-40.754430,-17.395548
15.464371,-40.408761,-10.517529
15.464371,-40.346876,-18.378122
15.464371,-39.973411,-9.534955
15.464371,-39.807951,-19.360696
15.464371,-39.459915,-8.552381
15.464371,-39.132145,-20.343270
15.464371,-38.874591,-7.569807
15.464371,-38.314027,-21.325844
15.464371,-38.223837,-6.587233
15.464371,-37.514129,-5.604659
15.464371,-36.752029,-4.622085
15.464371,-35.944174,-3.639511
15.464371,-35.097286,-2.656937
16.333936,-36.209541,-22.176292
16.333936,-35.714818,-21.100194
16.333936,-35.252902,-20.024097
16.333936,-34.814994,-18.947999
16.333936,-34.393803,-17.871902
16.333936,-33.983547,-16.795805
16.333936,-33.579952,-15.719707
16.333936,-33.180250,-14.643610
16.333936,-32.783184,-13.567512
16.333936,-32.389004,-12.491415
16.333936,-31.999467,-11.415317
16.333936,-31.617840,-10.339220
16.333936,-31.248896,-9.263122
16.333936,-30.898918,-8.187025
16.333936,-30.575697,-7.110928
16.333936,-30.288531,-6.034830
16.333936,-30.048226,-4.958733
16.333936,-29.867098,-3.882635
16.333936,-29.758969,-2.806538
16.333936,-29.739169,-1.730440
16.347301,-41.264071,-15.130802
16.347301,-41.233833,-14.097390
16.347301,-41.179790,-16.164215
16.347301,-41.094521,-13.063977
16.347301,-40.975645,-17.197628
16.347301,-40.851677,-12.030564
16.347301,-40.646388,-18.231041
16.347301,-40.510944,-10.997151
16.347301,-40.186872,-19.264454
16.347301,-40.078061,-9.963738
16.347301,-39.592046,-20.297867
16.347301,-39.558867,-8.930325
16.347301,-38.959301,-7.896912
16.347301,-38.856960,-21.331280
16.347301,-38.285398,-6.863499
16.347301,-37.976761,-22.364693
16.347301,-37.543294,-5.830086
16.347301,-36.739222,-4.796673
16.347301,-35.879514,-3.763260
16.347301,-34.970603,-2.729847
17.211066,-37.002544,-23.096720
17.211066,-36.459412,-21.992359
17.211066,-35.962348,-20.887998
17.211066,-35.501030,-19.783637
17.211066,-35.066808,-18.679276
17.211066,-34.652705,-17.574915
17.211066,-34.253418,-16.470554
17.211066,-33.865316,-15.366193
17.211066,-33.486442,-14.261832
17.211066,-33.116509,-13.157470
17.211066,-32.756907,-12.053109
17.211066,-32.410696,-10.948748
17.211066,-32.082610,-9.844387
17.211066,-31.779055,-8.740026
17.211066,-31.508111,-7.635665
17.211066,-31.279530,-6.531304
17.211066,-31.104739,-5.426943
17.211066,-31.042443,-2.113860
17.211066,-30.996834,-4.322582
17.211066,-30.970587,-3.218221
17.230230,-41.293166,-15.616315
17.230230,-41.270342,-14.542916
17.230230,-41.200438,-16.689714
17.230230,-41.136476,-13.469517
17.230230,-40.987757,-17.763113
17.230230,-40.896196,-12.396119
17.230230,-40.650842,-18.836511
17.230230,-40.554244,-11.322720
17.230230,-40.185525,-19.909910
17.230230,-40.115478,-10.249321
17.230230,-39.587752,-20.983309
17.230230,-39.584870,-9.175922
17.230230,-38.967506,-8.102523
17.230230,-38.853586,-22.056708
17.230230,-38.268588,-7.029125
17.230230,-37.979202,-23.130107
17.230230,-37.493432,-5.955726
17.230230,-36.647470,-4.882327
17.230230,-35.736248,-3.808928
17.230230,-34.765427,-2.735530
18.088196,-37.882179,-23.586231
18.088196,-37.313209,-22.483440
18.088196,-36.798561,-21.380649
18.088196,-36.327731,-20.277858
18.088196,-35.891877,-19.175067
18.088196,-35.483823,-18.072276
18.088196,-35.098054,-16.969486
18.088196,-34.730719,-15.866695
18.088196,-34.379632,-14.763904
18.088196,-34.044267,-13.661113
18.088196,-33.725765,-12.558322
18.088196,-33.426929,-11.455531
18.088196,-33.152224,-10.352740
18.088196,-32.907780,-9.249949
18.088196,-32.701392,-8.147158
18.088196,-32.629463,-2.633203
18.088196,-32.542514,-7.044367
18.088196,-32.470463,-3.735994
18.088196,-32.442267,-5.941576
18.088196,-32.413435,-4.838785
18.113160,-41.321224,-15.917963
18.113160,-41.286773,-14.835684
18.113160,-41.247477,-17.000242
18.113160,-41.147139,-13.753405
18.113160,-41.062634,-18.082521
18.113160,-40.905456,-12.671126
18.113160,-40.763918,-19.164800
18.113160,-40.564978,-11.588847
18.113160,-40.348668,-20.247078
18.113160,-40.129076,-10.506568
18.113160,-39.814343,-21.329357
18.113160,-39.601242,-9.424290
18.113160,-39.158523,-22.411636
18.113160,-38.985083,-8.342011
18.113160,-38.378902,-23.493915
18.113160,-38.284328,-7.259732
18.113160,-37.502824,-6.177453
18.113160,-36.644535,-5.095174
18.113160,-35.713546,-4.012895
18.113160,-34.714059,-2.930616
18.965327,-38.743686,-23.477054
18.965327,-38.202433,-22.427741
18.965327,-37.713625,-21.378429
18.965327,-37.268695,-20.329116
18.965327,-36.860439,-19.279803
18.965327,-36.483017,-18.230490
18.965327,-36.131953,-17.181177
18.965327,-35.804133,-16.131864
18.965327,-35.497807,-15.082551
18.965327,-35.212590,-14.033238
18.965327,-34.949459,-12.983925
18.965327,-34.710754,-11.934612
18.965327,-34.500180,-10.885299
18.965327,-34.411307,-3.540109
18.965327,-34.322805,-9.835987
18.965327,-34.206716,-4.589422
18.965327,-34.185059,-8.786674
18.965327,-34.094737,-7.737361
18.965327,-34.094362,-5.638735
18.965327,-34.060998,-6.688048
18.996089,-41.325784,-16.078998
18.996089,-41.289297,-17.112650
18.996089,-41.272282,-15.045346
18.996089,-41.161683,-18.146302
18.996089,-41.130027,-14.011695
18.996089,-40.941905,-19.179954
18.996089,-40.900351,-12.978043
18.996089,-40.629024,-20.213606
18.996089,-40.584689,-11.944391
18.996089,-40.222199,-21.247257
18.996089,-40.184571,-10.910739
18.996089,-39.720689,-22.280909
18.996089,-39.701630,-9.877087
18.996089,-39.137592,-8.843435
18.996089,-39.123850,-23.314561
18.996089,-38.494288,-7.809784
18.996089,-37.773643,-6.776132
18.996089,-36.977683,-5.742480
18.996089,-36.108532,-4.708828
18.996089,-35.168414,-3.675176
19.842457,-39.508070,-22.584249
19.842457,-39.070198,-21.667903
19.842457,-38.671218,-20.751558
19.842457,-38.306319,-19.835212
19.842457,-37.971485,-18.918866
19.842457,-37.663493,-18.002521
19.842457,-37.379912,-17.086175
19.842457,-37.119104,-16.169830
19.842457,-36.880224,-15.253484
19.842457,-36.663223,-14.337139
19.842457,-36.468839,-13.420793
19.842457,-36.298609,-12.504447
19.842457,-36.252088,-5.173683
19.842457,-36.154859,-11.588102
19.842457,-36.078698,-6.090028
19.842457,-36.040711,-10.671756
19.842457,-35.970284,-7.006374
19.842457,-35.960076,-9.755411
19.842457,-35.918966,-7.922720
19.842457,-35.917661,-8.839065
19.879019,-41.287676,-17.071070
19.879019,-41.285678,-16.176732
19.879019,-41.228747,-17.965409
19.879019,-41.222600,-15.282394
19.879019,-41.109103,-18.859747
19.879019,-41.098340,-14.388056
19.879019,-40.929010,-19.754085
19.879019,-40.912854,-13.493718
19.879019,-40.688789,-20.648423
19.879019,-40.666152,-12.599379
19.879019,-40.388818,-21.542762
19.879019,-40.358300,-11.705041
19.879019,-40.029529,-22.437100
19.879019,-39.989420,-10.810703
19.879019,-39.559688,-9.916365
19.879019,-39.069336,-9.022026
19.879019,-38.518652,-8.127688
19.879019,-37.907978,-7.233350
19.879019,-37.237712,-6.339012
19.879019,-36.508307,-5.444673
20.719587,-40.203000,-20.705703
20.719587,-39.938510,-20.035425
20.719587,-39.693140,-19.365147
20.719587,-39.465636,-18.694869
20.719587,-39.254969,-18.024591
20.719587,-39.060338,-17.354313
20.719587,-38.881169,-16.684035
20.719587,-38.717115,-16.013757
20.719587,-38.568055,-15.343478
