-15.860731,-44.297938,-17.554605
-15.860731,-44.295895,-17.901138
-15.860731,-44.295421,-17.381338
-15.860731,-44.290519,-17.208072
-15.860731,-44.283212,-17.034805
-15.860731,-44.273481,-16.861538
-15.860731,-44.261308,-16.688272
-15.860731,-44.246672,-16.515005
-15.860731,-44.229557,-16.341739
-15.860731,-44.209942,-16.168472
-15.860731,-44.187808,-15.995206
-15.860731,-44.163139,-15.821939
-15.860731,-44.135914,-15.648672
-15.860731,-44.106116,-15.475406
-15.860731,-44.073726,-15.302139
-15.860731,-44.038726,-15.128873
-15.860731,-44.001098,-14.955606
-15.860731,-43.960825,-14.782340
-15.860731,-43.917888,-14.609073
-15.830098,-44.288053,-17.622136
-15.830098,-44.195038,-17.351188
-15.830098,-44.106158,-17.080240
-15.830098,-44.021385,-16.809293
-15.830098,-43.940702,-16.538345
-15.830098,-43.864099,-16.267397
-15.830098,-43.791573,-15.996450
-15.830098,-43.723131,-15.725502
-15.830098,-43.658786,-15.454554
-15.830098,-43.598562,-15.183607
-15.830098,-43.542489,-14.912659
-15.830098,-43.490605,-14.641711
-15.830098,-43.442958,-14.370763
-15.830098,-43.399602,-14.099816
-15.830098,-43.360600,-13.828868
-15.830098,-43.326024,-13.557920
-15.830098,-43.295952,-13.286973
-15.830098,-43.270473,-13.016025
-15.830098,-43.249682,-12.745077
-15.830098,-43.233682,-12.474130
-15.299143,-44.483839,-16.950692
-15.299143,-44.477233,-17.574443
-15.299143,-44.454963,-16.326941
-15.299143,-44.435641,-18.198194
-15.299143,-44.390129,-15.703190
-15.299143,-44.359573,-18.821945
-15.299143,-44.288879,-15.079439
-15.299143,-44.249558,-19.445697
-15.299143,-44.150771,-14.455688
-15.299143,-44.106143,-20.069448
-15.299143,-43.975382,-13.831936
-15.299143,-43.929893,-20.693199
-15.299143,-43.762306,-13.208185
-15.299143,-43.511154,-12.584434
-15.299143,-43.221555,-11.960683
-15.299143,-42.893156,-11.336932
-15.299143,-42.525621,-10.713181
-15.299143,-42.118632,-10.089430
-15.299143,-41.671888,-9.465679
-15.299143,-41.185107,-8.841927
-15.272199,-43.128082,-20.705703
-15.272199,-42.773144,-20.035425
-15.272199,-42.443866,-19.365147
-15.272199,-42.138562,-18.694869
-15.272199,-41.855854,-18.024591
-15.272199,-41.594665,-17.354313
-15.272199,-41.354226,-16.684035
-15.272199,-41.134070,-16.013757
-15.272199,-40.934036,-15.343478
-15.272199,-40.754268,-14.673200
-15.272199,-40.595213,-14.002922
-15.272199,-40.457625,-13.332644
-15.272199,-40.342560,-12.662366
-15.272199,-40.320555,-7.970419
-15.272199,-40.251380,-11.992088
-15.272199,-40.222760,-8.640698
-15.272199,-40.185753,-11.321810
-15.272199,-40.163420,-9.310976
-15.272199,-40.147650,-10.651532
-15.272199,-40.139345,-9.981254
-15.002121,-33.788745,0.407653
-14.737555,-44.583684,-17.071070
-14.737555,-44.581003,-16.176732
-14.737555,-44.504603,-17.965409
-14.737555,-44.496354,-15.282394
-14.737555,-44.344044,-18.859747
-14.737555,-44.329601,-14.388056
-14.737555,-44.102365,-19.754085
-14.737555,-44.080684,-13.493718
-14.737555,-43.779997,-20.648423
-14.737555,-43.749618,-12.599379
-14.737555,-43.377445,-21.542762
-14.737555,-43.336490,-11.705041
-14.737555,-42.895289,-22.437100
-14.737555,-42.841465,-10.810703
-14.737555,-42.264777,-9.916365
-14.737555,-41.606740,-9.022026
-14.737555,-40.867739,-8.127688
-14.737555,-40.048233,-7.233350
-14.737555,-39.148756,-6.339012
-14.737555,-38.169918,-5.444673
-14.714300,-42.195507,-22.584249
-14.714300,-41.607897,-21.667903
-14.714300,-41.072477,-20.751558
-14.714300,-40.582794,-19.835212
-14.714300,-40.133458,-18.918866
-14.714300,-39.720141,-18.002521
-14.714300,-39.339584,-17.086175
-14.714300,-38.989587,-16.169830
-14.714300,-38.669019,-15.253484
-14.714300,-38.377809,-14.337139
-14.714300,-38.116953,-13.420793
-14.714300,-37.888509,-12.504447
-14.714300,-37.826080,-5.173683
-14.714300,-37.695601,-11.588102
-14.714300,-37.593395,-6.090028
-14.714300,-37.542417,-10.671756
-14.714300,-37.447906,-7.006374
-14.714300,-37.434207,-9.755411
-14.714300,-37.379040,-7.922720
-14.714300,-37.377289,-8.839065
-14.175967,-44.634824,-16.078998
-14.175967,-44.585859,-17.112650
-14.175967,-44.563026,-15.045346
-14.175967,-44.414605,-18.146302
-14.175967,-44.372124,-14.011695
-14.175967,-44.119670,-19.179954
-14.175967,-44.063906,-12.978043
-14.175967,-43.699793,-20.213606
-14.175967,-43.640297,-11.944391
-14.175967,-43.153846,-21.247257
-14.175967,-43.103352,-10.910739
-14.175967,-42.480835,-22.280909
-14.175967,-42.455258,-9.877087
-14.175967,-41.698338,-8.843435
-14.175967,-41.679896,-23.314561
-14.175967,-40.835043,-7.809784
-14.175967,-39.867959,-6.776132
-14.175967,-38.799805,-5.742480
-14.175967,-37.633432,-4.708828
-14.175967,-36.371822,-3.675176
-14.156400,-41.169727,-23.477054
-14.156400,-40.443383,-22.427741
-14.156400,-39.787417,-21.378429
-14.156400,-39.190335,-20.329116
-14.156400,-38.642468,-19.279803
-14.156400,-38.135979,-18.230490
-14.156400,-37.664862,-17.181177
-14.156400,-37.224937,-16.131864
-14.156400,-36.813858,-15.082551
-14.156400,-36.431105,-14.033238
-14.156400,-36.077991,-12.983925
-14.156400,-35.757657,-11.934612
-14.156400,-35.475073,-10.885299
-14.156400,-35.355807,-3.540109
-14.156400,-35.237040,-9.835987
-14.156400,-35.081252,-4.589422
-14.156400,-35.052189,-8.786674
-14.156400,-34.930980,-7.737361
-14.156400,-34.930477,-5.638735
-14.156400,-34.885703,-6.688048
-13.863944,-26.282715,0.354925
-13.614379,-44.628705,-15.917963
-13.614379,-44.582472,-14.835684
-13.614379,-44.529738,-17.000242
-13.614379,-44.395087,-13.753405
-13.614379,-44.281685,-18.082521
-13.614379,-44.070757,-12.671126
-13.614379,-43.880816,-19.164800
-13.614379,-43.613846,-11.588847
-13.614379,-43.323564,-20.247078
-13.614379,-43.028879,-10.506568
-13.614379,-42.606517,-21.329357
-13.614379,-42.320541,-9.424290
-13.614379,-41.726425,-22.411636
-13.614379,-41.493675,-8.342011
-13.614379,-40.680198,-23.493915
-13.614379,-40.553283,-7.259732
-13.614379,-39.504528,-6.177453
-13.614379,-38.352731,-5.095174
-13.614379,-37.103372,-4.012895
-13.614379,-35.762091,-2.930616
-13.598501,-40.013612,-23.586231
-13.598501,-39.250071,-22.483440
-13.598501,-38.559429,-21.380649
-13.598501,-37.927589,-20.277858
-13.598501,-37.342687,-19.175067
-13.598501,-36.795091,-18.072276
-13.598501,-36.277401,-16.969486
-13.598501,-35.784449,-15.866695
-13.598501,-35.313300,-14.763904
-13.598501,-34.863251,-13.661113
-13.598501,-34.435831,-12.558322
-13.598501,-34.034802,-11.455531
-13.598501,-33.666156,-10.352740
-13.598501,-33.338121,-9.249949
-13.598501,-33.061153,-8.147158
-13.598501,-32.964628,-2.633203
-13.598501,-32.847944,-7.044367
-13.598501,-32.751255,-3.735994
-13.598501,-32.713416,-5.941576
-13.598501,-32.674724,-4.838785
-13.052791,-44.591052,-15.616315
-13.052791,-44.560422,-14.542916
-13.052791,-44.466613,-16.689714
-13.052791,-44.380778,-13.469517
-13.052791,-44.181202,-17.763113
-13.052791,-44.058330,-12.396119
-13.052791,-43.729073,-18.836511
-13.052791,-43.599441,-11.322720
-13.052791,-43.104631,-19.909910
-13.052791,-43.010631,-10.249321
-13.052791,-42.302439,-20.983309
-13.052791,-42.298570,-9.175922
-13.052791,-41.470087,-8.102523
-13.052791,-41.317209,-22.056708
-13.052791,-40.532160,-7.029125
-13.052791,-40.143813,-23.130107
-13.052791,-39.491924,-5.955726
-13.052791,-38.356669,-4.882327
-13.052791,-37.133837,-3.808928
-13.052791,-35.831025,-2.735530
-13.040602,-38.833168,-23.096720
-13.040602,-38.104302,-21.992359
-13.040602,-37.437257,-20.887998
-13.040602,-36.818182,-19.783637
-13.040602,-36.235469,-18.679276
-13.040602,-35.679756,-17.574915
-13.040602,-35.143925,-16.470554
-13.040602,-34.623105,-15.366193
-13.040602,-34.114667,-14.261832
-13.040602,-33.618229,-13.157470
-13.040602,-33.135654,-12.053109
-13.040602,-32.671049,-10.948748
-13.040602,-32.230767,-9.844387
-13.040602,-31.823406,-8.740026
-13.040602,-31.459807,-7.635665
-13.040602,-31.153059,-6.531304
-13.040602,-30.918494,-5.426943
-13.040602,-30.834895,-2.113860
-13.040602,-30.773689,-4.322582
-13.040602,-30.738467,-3.218221
-12.705116,-26.949415,0.478769
-12.491203,-44.552007,-15.130802
-12.491203,-44.511429,-14.097390
-12.491203,-44.438905,-16.164215
-12.491203,-44.324476,-13.063977
-12.491203,-44.164948,-17.197628
-12.491203,-43.998587,-12.030564
-12.491203,-43.723096,-18.231041
-12.491203,-43.541333,-10.997151
-12.491203,-43.106439,-19.264454
-12.491203,-42.960417,-9.963738
-12.491203,-42.308201,-20.297867
-12.491203,-42.263676,-8.930325
-12.491203,-41.459076,-7.896912
-12.491203,-41.321737,-21.331280
-12.491203,-40.554719,-6.863499
-12.491203,-40.140537,-22.364693
-12.491203,-39.558838,-5.830086
-12.491203,-38.479798,-4.796673
-12.491203,-37.326097,-3.763260
-12.491203,-36.106365,-2.729847
-12.482702,-37.768982,-22.176292
-12.482702,-37.105079,-21.100194
-12.482702,-36.485202,-20.024097
-12.482702,-35.897543,-18.947999
-12.482702,-35.332318,-17.871902
-12.482702,-34.781767,-16.795805
-12.482702,-34.240154,-15.719707
-12.482702,-33.703767,-14.643610
-12.482702,-33.170916,-13.567512
-12.482702,-32.641938,-12.491415
-12.482702,-32.119192,-11.415317
-12.482702,-31.607059,-10.339220
-12.482702,-31.111948,-9.263122
-12.482702,-30.642289,-8.187025
-12.482702,-30.208536,-7.110928
-12.482702,-29.823168,-6.034830
-12.482702,-29.500686,-4.958733
-12.482702,-29.257618,-3.882635
-12.482702,-29.112511,-2.806538
-12.482702,-29.085942,-1.730440
-11.929615,-44.526661,-14.447825
-11.929615,-44.463170,-15.430399
-11.929615,-44.444521,-13.465251
-11.929615,-44.246217,-16.412974
-11.929615,-44.224684,-12.482677
-11.929615,-43.875195,-11.500103
-11.929615,-43.868084,-17.395548
-11.929615,-43.404207,-10.517529
-11.929615,-43.321159,-18.378122
-11.929615,-42.819981,-9.534955
-11.929615,-42.597939,-19.360696
-11.929615,-42.130885,-8.552381
-11.929615,-41.691028,-20.343270
-11.929615,-41.345399,-7.569807
-11.929615,-40.593139,-21.325844
-11.929615,-40.472105,-6.587233
-11.929615,-39.519700,-5.604659
-11.929615,-38.496984,-4.622085
-11.929615,-37.412868,-3.639511
-11.929615,-36.276370,-2.656937
-11.924803,-36.925883,-20.975545
-11.924803,-36.323920,-19.940456
-11.924803,-35.747811,-18.905367
-11.924803,-35.188382,-17.870278
-11.924803,-34.638190,-16.835188
-11.924803,-34.091527,-15.800099
-11.924803,-33.544416,-14.765010
-11.924803,-32.994612,-13.729921
-11.924803,-32.441604,-12.694831
-11.924803,-31.886614,-11.659742
-11.924803,-31.332593,-10.624653
-11.924803,-30.784229,-9.589563
-11.924803,-30.247939,-8.554474
-11.924803,-29.731875,-7.519385
-11.924803,-29.245921,-6.484296
-11.924803,-28.801691,-5.449206
-11.924803,-28.412536,-4.414117
-11.924803,-28.093536,-3.379028
-11.924803,-27.861504,-2.343939
-11.924803,-27.734987,-1.308849
-11.546288,-27.940452,0.442015
-11.368027,-44.525164,-14.514646
-11.368027,-44.506228,-13.579030
-11.368027,-44.400654,-15.450262
-11.368027,-44.352054,-12.643414
-11.368027,-44.124573,-16.385878
-11.368027,-44.070944,-11.707798
-11.368027,-43.688891,-17.321494
-11.368027,-43.671285,-10.772182
-11.368027,-43.161556,-9.836566
-11.368027,-43.085662,-18.257110
-11.368027,-42.550323,-8.900950
-11.368027,-42.307033,-19.192726
-11.368027,-41.846241,-7.965335
-11.368027,-41.345236,-20.128342
-11.368027,-41.058056,-7.029719
-11.368027,-40.194600,-6.094103
-11.368027,-39.264796,-5.158487
-11.368027,-38.277656,-4.222871
-11.368027,-37.242281,-3.287255
-11.368027,-36.167858,-2.351639
-11.366903,-36.352387,-19.627910
-11.366903,-35.791570,-18.633947
-11.366903,-35.241546,-17.639984
-11.366903,-34.695590,-16.646020
-11.366903,-34.148451,-15.652057
-11.366903,-33.596351,-14.658094
-11.366903,-33.036984,-13.664131
-11.366903,-32.469518,-12.670167
-11.366903,-31.894596,-11.676204
-11.366903,-31.314330,-10.682241
-11.366903,-30.732308,-9.688278
-11.366903,-30.153591,-8.694314
-11.366903,-29.584713,-7.700351
-11.366903,-29.033681,-6.706388
-11.366903,-28.509974,-5.712425
-11.366903,-28.024547,-4.718462
-11.366903,-27.589825,-3.724498
-11.366903,-27.219708,-2.730535
-11.366903,-26.929569,-1.736572
-11.366903,-26.736253,-0.742609
-10.809004,-36.055722,-18.249644
-10.809004,-35.510501,-17.288239
-10.809004,-34.964993,-16.326833
-10.809004,-34.414438,-15.365427
-10.809004,-33.855364,-14.404021
-10.809004,-33.285589,-13.442615
-10.809004,-32.704220,-12.481210
-10.809004,-32.111653,-11.519804
-10.809004,-31.509575,-10.558398
-10.809004,-30.900962,-9.596992
-10.809004,-30.290078,-8.635586
-10.809004,-29.682477,-7.674181
-10.809004,-29.085004,-6.712775
-10.809004,-28.505791,-5.751369
-10.809004,-27.954262,-4.789963
-10.809004,-27.441129,-3.828557
-10.809004,-26.978392,-2.867151
-10.809004,-26.579343,-1.905746
-10.809004,-26.258563,-0.944340
-10.809004,-26.031920,0.017066
-10.806439,-44.589959,-13.459286
-10.806439,-44.582551,-14.361668
-10.806439,-44.463088,-12.556903
-10.806439,-44.432261,-15.264051
-10.806439,-44.210620,-11.654520
-10.806439,-44.130559,-16.166433
-10.806439,-43.841316,-10.752138
-10.806439,-43.668995,-17.068816
-10.806439,-43.364010,-9.849755
-10.806439,-43.039195,-17.971199
-10.806439,-42.787617,-8.947373
-10.806439,-42.232861,-18.873581
-10.806439,-42.121124,-8.044990
-10.806439,-41.373600,-7.142608
-10.806439,-40.554189,-6.240225
-10.806439,-39.672111,-5.337842
-10.806439,-38.736663,-4.435460
-10.806439,-37.757222,-3.533077
-10.806439,-36.743239,-2.630695
-10.806439,-35.704241,-1.728312
-10.251105,-36.027849,-16.939837
-10.251105,-35.475178,-15.997151
-10.251105,-34.914542,-15.054465
-10.251105,-34.342639,-14.111780
-10.251105,-33.757362,-13.169094
-10.251105,-33.157794,-12.226409
-10.251105,-32.544210,-11.283723
-10.251105,-31.918078,-10.341038
-10.251105,-31.282057,-9.398352
-10.251105,-30.639998,-8.455667
-10.251105,-29.996944,-7.512981
-10.251105,-29.359130,-6.570295
-10.251105,-28.733984,-5.627610
-10.251105,-28.130123,-4.684924
-10.251105,-27.557358,-3.742239
-10.251105,-27.026692,-2.799553
-10.251105,-26.550320,-1.856868
-10.251105,-26.141626,-0.914182
-10.251105,-25.815191,0.028503
-10.244851,-44.750019,-13.207280
-10.244851,-44.739373,-14.095738
-10.244851,-44.623284,-12.318822
-10.244851,-44.581940,-14.984196
-10.244851,-44.368643,-11.430364
-10.244851,-44.268388,-15.872654
-10.244851,-43.995648,-10.541906
-10.244851,-43.789456,-16.761112
-10.244851,-43.513918,-9.653448
-10.244851,-43.135958,-17.649569
-10.244851,-42.933149,-8.764990
-10.244851,-42.263108,-7.876532
-10.244851,-41.513631,-6.988074
-10.244851,-40.694632,-6.099616
-10.244851,-39.816094,-5.211158
-10.244851,-38.888071,-4.322700
-10.244851,-37.920693,-3.434242
-10.244851,-36.924160,-2.545784
-10.244851,-35.908744,-1.657326
-10.244851,-34.884792,-0.768868
-9.693205,-36.264132,-15.780404
-9.693205,-35.686138,-14.840228
-9.693205,-35.094882,-13.900053
-9.693205,-34.488108,-12.959877
-9.693205,-33.864743,-12.019702
-9.693205,-33.224892,-11.079527
-9.693205,-32.569839,-10.139351
-9.693205,-31.902049,-9.199176
-9.693205,-31.225162,-8.259000
-9.693205,-30.544003,-7.318825
-9.693205,-29.864571,-6.378649
-9.693205,-29.194048,-5.438474
-9.693205,-28.540794,-4.498299
-9.693205,-27.914347,-3.558123
-9.693205,-27.325426,-2.617948
-9.693205,-26.785929,-1.677772
-9.693205,-26.308931,-0.737597
-9.693205,-25.908690,0.202578
-9.683263,-45.027255,-12.947745
-9.683263,-45.018204,-13.843540
-9.683263,-44.889353,-12.051950
-9.683263,-44.851337,-14.739336
-9.683263,-44.615432,-11.156155
-9.683263,-44.515868,-15.635131
-9.683263,-44.216504,-10.260359
-9.683263,-44.001086,-16.530926
-9.683263,-43.703654,-9.364564
-9.683263,-43.088043,-8.468769
-9.683263,-42.380904,-7.572974
-9.683263,-41.593549,-6.677178
-9.683263,-40.737362,-5.781383
-9.683263,-39.823802,-4.885588
-9.683263,-38.864402,-3.989793
-9.683263,-37.870773,-3.093997
-9.683263,-36.854596,-2.198202
-9.683263,-35.827632,-1.302407
-9.683263,-34.801712,-0.406611
-9.135306,-36.768212,-14.836093
-9.135306,-36.152640,-13.882217
-9.135306,-35.519989,-12.928342
-9.135306,-34.868722,-11.974467
-9.135306,-34.198551,-11.020592
-9.135306,-33.510437,-10.066717
-9.135306,-32.806593,-9.112842
-9.135306,-32.090477,-8.158967
-9.135306,-31.366800,-7.205092
-9.135306,-30.641521,-6.251216
-9.135306,-29.921850,-5.297341
-9.135306,-29.216244,-4.343466
-9.135306,-28.534413,-3.389591
-9.135306,-27.887312,-2.435716
-9.135306,-27.287150,-1.481841
-9.135306,-26.747382,-0.527966
-9.121675,-45.463713,-12.808844
-9.121675,-45.438638,-13.732190
-9.121675,-45.323141,-11.885497
-9.121675,-45.234697,-14.655537
-9.121675,-45.030227,-10.962151
-9.121675,-44.838754,-15.578883
-9.121675,-44.598361,-10.038804
-9.121675,-44.041016,-9.115457
-9.121675,-43.371749,-8.192111
-9.121675,-42.604204,-7.268764
-9.121675,-41.752106,-6.345418
-9.121675,-40.829267,-5.422071
-9.121675,-39.849581,-4.498725
-9.121675,-38.827030,-3.575378
-9.121675,-37.775676,-2.652032
-9.121675,-36.709669,-1.728685
-9.121675,-35.643241,-0.805339
-9.121675,-34.590710,0.118008
-8.577407,-37.545824,-14.154480
-8.577407,-36.885889,-13.172546
-8.577407,-36.205976,-12.190613
-8.577407,-35.504954,-11.208679
-8.577407,-34.783093,-10.226746
-8.577407,-34.042069,-9.244812
-8.577407,-33.284958,-8.262879
-8.577407,-32.516242,-7.280945
-8.577407,-31.741803,-6.299012
-8.577407,-30.968930,-5.317078
-8.577407,-30.206312,-4.335145
-8.577407,-29.464042,-3.353211
-8.577407,-28.753616,-2.371278
-8.577407,-28.087934,-1.389345
-8.577407,-27.481299,-0.407411
-8.560087,-46.095852,-12.905901
-8.560087,-46.007143,-13.873593
-8.560087,-45.987665,-11.938209
-8.560087,-45.704817,-14.841285
-8.560087,-45.699400,-10.970517
-8.560087,-45.247980,-10.002825
-8.560087,-44.650430,-9.035133
-8.560087,-43.923873,-8.067441
-8.560087,-43.085539,-7.099748
-8.560087,-42.152755,-6.132056
-8.560087,-41.142954,-5.164364
-8.560087,-40.073669,-4.196672
-8.560087,-38.962533,-3.228980
-8.560087,-37.827283,-2.261288
-8.560087,-36.685758,-1.293596
-8.560087,-35.555897,-0.325904
-8.069803,-31.555315,0.618330
-8.069803,-30.907374,1.589328
-8.069803,-30.392663,2.560325
-8.069803,-30.329167,6.444315
-8.069803,-30.042248,3.531322
-8.069803,-29.972479,5.473317
-8.069803,-29.889977,4.502320
-8.019507,-38.593912,-13.765970
-8.019507,-37.888053,-12.744800
-8.019507,-37.160078,-11.723629
-8.019507,-36.408884,-10.702458
-8.019507,-35.635009,-9.681288
-8.019507,-34.840630,-8.660117
-8.019507,-34.029569,-7.638947
-8.019507,-33.207285,-6.617776
-8.019507,-32.380881,-5.596605
-8.019507,-31.559100,-4.575435
-8.019507,-30.752328,-3.554264
-8.019507,-29.972589,-2.533093
-8.019507,-29.233551,-1.511923
-8.019507,-28.550522,-0.490752
-8.003181,-37.048177,0.862961
-8.003181,-35.584442,1.860347
-8.003181,-34.289478,2.857733
-8.003181,-33.209596,3.855119
-8.003181,-32.391343,4.852506
-8.003181,-31.881506,5.849892
-8.003181,-31.727110,6.847278
-7.998499,-46.918542,-13.328920
-7.998499,-46.916160,-12.305250
-7.998499,-46.690183,-11.281579
-7.998499,-46.675675,-14.352590
-7.998499,-46.262391,-10.257909
-7.998499,-45.654692,-9.234239
-7.998499,-44.889122,-8.210569
-7.998499,-43.987844,-7.186899
-7.998499,-42.973149,-6.163229
-7.998499,-41.867454,-5.139559
-7.998499,-40.693306,-4.115889
-7.998499,-39.473376,-3.092219
-7.998499,-38.230466,-2.068549
-7.998499,-36.987504,-1.044879
-7.998499,-35.767545,-0.021209
-7.461608,-39.890916,-13.683800
-7.461608,-39.142086,-12.616199
-7.461608,-38.370109,-11.548599
-7.461608,-37.573374,-10.480998
-7.461608,-36.752231,-9.413398
-7.461608,-35.908991,-8.345797
-7.461608,-35.047924,-7.278197
-7.461608,-34.175264,-6.210596
-7.461608,-33.299203,-5.142996
-7.461608,-32.429894,-4.075395
-7.461608,-31.579450,-3.007795
-7.461608,-30.761948,-1.940194
-7.461608,-29.993421,-0.872593
-7.461608,-29.291867,0.195007
-7.436911,-48.056160,-13.048860
-7.436911,-48.000324,-11.963854
-7.436911,-47.823812,-14.133865
-7.436911,-47.684267,-10.878849
-7.436911,-47.136111,-9.793843
-7.436911,-46.384140,-8.708837
-7.436911,-45.456798,-7.623832
-7.436911,-44.382691,-6.538826
-7.436911,-43.190586,-5.453821
-7.436911,-41.909409,-4.368815
-7.436911,-40.568248,-3.283810
-7.436911,-39.196354,-2.198804
-7.436911,-37.823135,-1.113799
-7.436911,-36.478162,-0.028793
-6.910975,-32.985857,0.473063
-6.910975,-32.306188,1.480613
-6.910975,-31.761489,2.488164
-6.910975,-31.650887,6.518366
-6.910975,-31.385266,3.495715
-6.910975,-31.288396,5.510816
-6.910975,-31.214249,4.503265
-6.903709,-41.392011,-13.904033
-6.903709,-40.605828,-12.787080
-6.903709,-39.797522,-11.670127
-6.903709,-38.964222,-10.553173
-6.903709,-38.105404,-9.436220
-6.903709,-37.222896,-8.319267
-6.903709,-36.320874,-7.202314
-6.903709,-35.405863,-6.085361
-6.903709,-34.486738,-4.968408
-6.903709,-33.574721,-3.851454
-6.903709,-32.683385,-2.734501
-6.903709,-31.828652,-1.617548
-6.903709,-31.028793,-0.500595
-6.875323,-49.488350,-13.047853
-6.875323,-49.436758,-11.902913
-6.875323,-49.196379,-14.192794
-6.875323,-49.076972,-10.757972
-6.875323,-48.444558,-9.613032
-6.875323,-47.575284,-8.468091
-6.875323,-46.505114,-7.323150
-6.875323,-45.270216,-6.178210
-6.875323,-43.906954,-5.033269
-6.875323,-42.451893,-3.888328
-6.875323,-40.941797,-2.743388
-6.875323,-39.413630,-1.598447
-6.875323,-37.904554,-0.453507
-6.836691,-38.429119,0.788989
-6.836691,-36.798825,1.818104
-6.836691,-35.355730,2.847218
-6.836691,-34.153842,3.876333
-6.836691,-33.247442,4.905448
-6.836691,-32.691078,5.934562
-6.836691,-32.539570,6.963677
-6.345809,-43.031020,-14.405563
-6.345809,-42.212215,-13.240366
-6.345809,-41.375956,-12.075169
-6.345809,-40.517140,-10.909972
-6.345809,-39.633449,-9.744776
-6.345809,-38.725346,-8.579579
-6.345809,-37.796076,-7.414382
-6.345809,-36.851666,-6.249185
-6.345809,-35.900924,-5.083988
-6.345809,-34.955443,-3.918791
-6.345809,-34.029595,-2.753594
-6.345809,-33.140536,-1.588397
-6.345809,-32.308203,-0.423201
-6.313735,-51.281962,-12.129944
-6.313735,-51.245485,-13.326807
-6.313735,-50.950071,-10.933081
-6.313735,-50.797428,-14.523671
-6.313735,-50.293265,-9.736217
-6.313735,-49.355233,-8.539354
-6.313735,-48.179901,-7.342490
-6.313735,-46.811437,-6.145627
-6.313735,-45.294245,-4.948764
-6.313735,-43.672966,-3.751900
-6.313735,-41.992482,-2.555037
-6.313735,-40.297911,-1.358174
-6.313735,-38.634611,-0.161310
-5.752147,-46.403646,-13.401865
-5.752147,-45.504087,-12.363068
-5.752147,-44.615422,-11.324271
-5.752147,-43.724858,-10.285473
-5.752147,-42.823248,-9.246676
-5.752147,-41.905091,-8.207878
-5.752147,-40.968528,-7.169081
-5.752147,-40.015346,-6.130284
-5.752147,-39.050974,-5.091486
-5.752147,-38.084488,-4.052689
-5.752147,-37.128607,-3.013892
-5.752147,-36.199694,-1.975094
-5.752147,-35.317758,-0.936297
-5.752147,-34.506450,0.102500
-5.752147,-33.793067,1.141298
-5.752147,-33.208550,2.180095
-5.752147,-32.905509,6.335284
-5.752147,-32.787484,3.218892
-5.752147,-32.592268,5.296487
-5.752147,-32.568099,4.257690
-5.670201,-56.211522,-10.122759
-5.670201,-56.151767,-11.168369
-5.670201,-55.808796,-9.077148
-5.670201,-55.573155,-12.213979
-5.670201,-55.000251,-8.031538
-5.670201,-54.419600,-13.259589
-5.670201,-53.842837,-6.985928
-5.670201,-52.393793,-5.940318
-5.670201,-50.710642,-4.894708
-5.670201,-48.851200,-3.849098
-5.670201,-46.873568,-2.803488
-5.670201,-44.836133,-1.757878
-5.670201,-42.797574,-0.712268
-5.670201,-40.816855,0.333342
-5.670201,-38.953227,1.378952
-5.670201,-37.266232,2.424562
-5.670201,-35.815695,3.470172
-5.670201,-34.661734,4.515783
-5.670201,-33.864752,5.561393
-5.670201,-33.485439,6.607003
-4.593319,-47.980276,-14.274432
-4.593319,-47.005843,-13.209846
-4.593319,-46.069189,-12.145261
-4.593319,-45.152319,-11.080675
-4.593319,-44.241263,-10.016090
-4.593319,-43.326066,-8.951504
-4.593319,-42.400795,-7.886919
-4.593319,-41.463538,-6.822333
-4.593319,-40.516402,-5.757748
-4.593319,-39.565513,-4.693162
-4.593319,-38.621019,-3.628577
-4.593319,-37.697084,-2.563991
-4.593319,-36.811897,-1.499406
-4.593319,-35.987663,-0.434820
-4.593319,-35.250610,0.629765
-4.593319,-34.630982,1.694351
-4.593319,-34.163046,2.758936
-4.593319,-34.072354,5.952693
-4.593319,-33.885089,3.823522
-4.593319,-33.839417,4.888107
-4.503711,-59.454890,-10.940471
-4.503711,-59.389958,-9.895596
-4.503711,-58.980784,-11.985347
-4.503711,-58.845598,-8.850721
-4.503711,-57.908318,-13.030222
-4.503711,-57.881706,-7.805845
-4.503711,-56.558465,-6.760970
-4.503711,-56.178455,-14.075097
-4.503711,-54.936347,-5.716095
-4.503711,-53.076108,-4.671219
-4.503711,-51.038794,-3.626344
-4.503711,-48.885734,-2.581469
-4.503711,-46.678547,-1.536593
-4.503711,-44.479140,-0.491718
-4.503711,-42.349702,0.553157
-4.503711,-40.352715,1.598033
-4.503711,-38.550943,2.642908
-4.503711,-37.007439,3.687783
-4.503711,-35.785545,4.732659
-4.503711,-34.948885,5.777534
-3.434491,-49.381815,-15.167971
-3.434491,-48.290305,-14.081269
-3.434491,-47.272291,-12.994566
-3.434491,-46.304033,-11.907863
-3.434491,-45.366160,-10.821160
-3.434491,-44.443661,-9.734458
-3.434491,-43.525893,-8.647755
-3.434491,-42.606576,-7.561052
-3.434491,-41.683795,-6.474349
-3.434491,-40.759998,-5.387647
-3.434491,-39.842000,-4.300944
-3.434491,-38.940980,-3.214241
-3.434491,-38.072479,-2.127538
-3.434491,-37.256406,-1.040836
-3.434491,-36.517032,0.045867
-3.434491,-35.882995,1.132570
-3.434491,-35.387293,2.219272
-3.434491,-35.125689,5.479381
-3.434491,-35.067295,3.305975
-3.434491,-34.964728,4.392678
-3.337221,-63.319530,-10.878114
-3.337221,-63.197972,-9.850981
-3.337221,-62.890396,-11.905247
-3.337221,-62.585485,-8.823847
-3.337221,-61.851073,-12.932381
-3.337221,-61.542104,-7.796714
-3.337221,-60.142332,-13.959514
-3.337221,-60.128127,-6.769581
-3.337221,-58.404125,-5.742447
-3.337221,-57.705212,-14.986647
-3.337221,-56.430932,-4.715314
-3.337221,-54.269655,-3.688181
-3.337221,-51.981664,-2.661047
-3.337221,-49.628600,-1.633914
-3.337221,-47.272372,-0.606781
-3.337221,-44.975155,0.420353
-3.337221,-42.799394,1.447486
-3.337221,-40.807801,2.474619
-3.337221,-39.063356,3.501753
-3.337221,-37.629306,4.528886
-2.275662,-50.503103,-15.993351
-2.275662,-49.245242,-14.884039
-2.275662,-48.104107,-13.774728
-2.275662,-47.049847,-12.665416
-2.275662,-46.057351,-11.556104
-2.275662,-45.106250,-10.446793
-2.275662,-44.180911,-9.337481
-2.275662,-43.270441,-8.228169
-2.275662,-42.368687,-7.118858
-2.275662,-41.474235,-6.009546
-2.275662,-40.590410,-4.900234
-2.275662,-39.725275,-3.790923
-2.275662,-38.891635,-2.681611
-2.275662,-38.107033,-1.572299
-2.275662,-37.393750,-0.462988
-2.275662,-36.778807,0.646324
-2.275662,-36.293966,1.755636
-2.275662,-36.008741,5.083571
-2.275662,-35.975725,2.864947
-2.275662,-35.865324,3.974259
-2.170731,-67.836655,-10.956944
-2.170731,-67.725192,-9.961593
-2.170731,-67.393945,-11.952296
-2.170731,-67.116765,-8.966241
-2.170731,-66.340089,-12.947648
-2.170731,-66.068820,-7.970890
-2.170731,-64.639038,-6.975538
-2.170731,-64.618349,-13.942999
-2.170731,-62.885338,-5.980186
-2.170731,-62.172226,-14.938351
-2.170731,-60.865875,-4.984835
-2.170731,-58.945456,-15.933703
-2.170731,-58.639039,-3.989483
-2.170731,-56.263457,-2.994131
-2.170731,-53.797993,-1.998780
-2.170731,-51.301746,-1.003428
-2.170731,-48.834052,-0.008076
-2.170731,-46.454484,0.987275
-2.170731,-44.222850,1.982627
-2.170731,-42.199195,2.977978
-1.116834,-51.164523,-16.647130
-1.116834,-49.696246,-15.507745
-1.116834,-48.393560,-14.368360
-1.116834,-47.219984,-13.228974
-1.116834,-46.144312,-12.089589
-1.116834,-45.140611,-10.950204
-1.116834,-44.188224,-9.810819
-1.116834,-43.271768,-8.671433
-1.116834,-42.381134,-7.532048
-1.116834,-41.511488,-6.392663
-1.116834,-40.663270,-5.253278
-1.116834,-39.842195,-4.113893
-1.116834,-39.059252,-2.974507
-1.116834,-38.330704,-1.835122
-1.116834,-37.678090,-0.695737
-1.116834,-37.128222,0.443648
-1.116834,-36.713187,1.583034
-1.116834,-36.677063,5.001189
-1.116834,-36.470345,2.722419
-1.116834,-36.442334,3.861804
-1.004242,-73.086419,-11.109969
-1.004242,-73.021944,-10.154202
-1.004242,-72.600046,-12.065736
-1.004242,-72.459756,-9.198435
-1.004242,-71.509892,-13.021503
-1.004242,-71.453191,-8.242668
-1.004242,-70.055782,-7.286901
-1.004242,-69.763225,-13.977270
-1.004242,-68.321269,-6.331134
-1.004242,-67.307513,-14.933037
-1.004242,-66.303588,-5.375367
-1.004242,-64.090425,-15.888804
-1.004242,-64.056878,-4.419600
-1.004242,-61.635479,-3.463833
-1.004242,-60.059833,-16.844571
-1.004242,-59.093930,-2.508066
-1.004242,-56.486974,-1.552299
-1.004242,-53.869552,-0.596532
-1.004242,-51.296808,0.359235
-1.004242,-48.824086,1.315002
-0.162248,-79.168601,-11.207534
-0.162248,-79.115250,-10.289125
-0.162248,-78.677632,-12.125944
-0.162248,-78.566937,-9.370715
-0.162248,-77.593157,-13.044354
-0.162248,-77.573191,-8.452305
-0.162248,-76.183711,-7.533895
-0.162248,-75.866161,-13.962764
-0.162248,-74.448368,-6.615486
-0.162248,-73.447802,-14.881174
-0.162248,-72.417206,-5.697076
-0.162248,-70.289406,-15.799583
-0.162248,-70.140437,-4.778666
-0.162248,-67.668448,-3.860256
-0.162248,-66.342472,-16.717993
-0.162248,-65.051793,-2.941846
-0.162248,-62.341202,-2.023437
-0.162248,-61.558672,-17.636403
-0.162248,-59.587572,-1.105027
-0.162248,-56.841974,-0.186617
-0.041994,-51.068691,-17.011558
-0.041994,-49.365977,-15.824416
-0.041994,-47.881935,-14.637274
-0.041994,-46.572277,-13.450132
-0.041994,-45.398930,-12.262990
-0.041994,-44.330038,-11.075848
-0.041994,-43.339958,-9.888707
-0.041994,-42.409268,-8.701565
-0.041994,-41.524756,-7.514423
-0.041994,-40.679431,-6.327281
-0.041994,-39.872515,-5.140139
-0.041994,-39.109446,-3.952997
-0.041994,-38.401879,-2.765855
-0.041994,-37.767685,-1.578713
-0.041994,-37.287296,5.544139
-0.041994,-37.230950,-0.391571
-0.041994,-36.821976,0.795571
-0.041994,-36.757883,4.356997
-0.041994,-36.577281,1.982713
-0.041994,-36.539601,3.169855
0.041994,-51.068691,-17.011558
0.041994,-49.365977,-15.824416
0.041994,-47.881935,-14.637274
0.041994,-46.572277,-13.450132
0.041994,-45.398930,-12.262990
0.041994,-44.330038,-11.075848
0.041994,-43.339958,-9.888707
0.041994,-42.409268,-8.701565
0.041994,-41.524756,-7.514423
0.041994,-40.679431,-6.327281
0.041994,-39.872515,-5.140139
0.041994,-39.109446,-3.952997
0.041994,-38.401879,-2.765855
0.041994,-37.767685,-1.578713
0.041994,-37.287296,5.544139
0.041994,-37.230950,-0.391571
0.041994,-36.821976,0.795571
0.041994,-36.757883,4.356997
0.041994,-36.577281,1.982713
0.041994,-36.539601,3.169855
0.162248,-79.168601,-11.207534
0.162248,-79.115250,-10.289125
0.162248,-78.677632,-12.125944
0.162248,-78.566937,-9.370715
0.162248,-77.593157,-13.044354
0.162248,-77.573191,-8.452305
0.162248,-76.183711,-7.533895
0.162248,-75.866161,-13.962764
0.162248,-74.448368,-6.615486
0.162248,-73.447802,-14.881174
0.162248,-72.417206,-5.697076
0.162248,-70.289406,-15.799583
0.162248,-70.140437,-4.778666
0.162248,-67.668448,-3.860256
0.162248,-66.342472,-16.717993
0.162248,-65.051793,-2.941846
0.162248,-62.341202,-2.023437
0.162248,-61.558672,-17.636403
0.162248,-59.587572,-1.105027
0.162248,-56.841974,-0.186617
1.004242,-73.086419,-11.109969
1.004242,-73.021944,-10.154202
1.004242,-72.600046,-12.065736
1.004242,-72.459756,-9.198435
1.004242,-71.509892,-13.021503
1.004242,-71.453191,-8.242668
1.004242,-70.055782,-7.286901
1.004242,-69.763225,-13.977270
1.004242,-68.321269,-6.331134
1.004242,-67.307513,-14.933037
1.004242,-66.303588,-5.375367
1.004242,-64.090425,-15.888804
1.004242,-64.056878,-4.419600
1.004242,-61.635479,-3.463833
1.004242,-60.059833,-16.844571
1.004242,-59.093930,-2.508066
1.004242,-56.486974,-1.552299
1.004242,-53.869552,-0.596532
1.004242,-51.296808,0.359235
1.004242,-48.824086,1.315002
1.116834,-51.164523,-16.647130
1.116834,-49.696246,-15.507745
1.116834,-48.393560,-14.368360
1.116834,-47.219984,-13.228974
1.116834,-46.144312,-12.089589
1.116834,-45.140611,-10.950204
1.116834,-44.188224,-9.810819
1.116834,-43.271768,-8.671433
1.116834,-42.381134,-7.532048
1.116834,-41.511488,-6.392663
1.116834,-40.663270,-5.253278
1.116834,-39.842195,-4.113893
1.116834,-39.059252,-2.974507
1.116834,-38.330704,-1.835122
1.116834,-37.678090,-0.695737
1.116834,-37.128222,0.443648
1.116834,-36.713187,1.583034
1.116834,-36.677063,5.001189
1.116834,-36.470345,2.722419
1.116834,-36.442334,3.861804
2.170731,-67.836655,-10.956944
2.170731,-67.725192,-9.961593
2.170731,-67.393945,-11.952296
2.170731,-67.116765,-8.966241
2.170731,-66.340089,-12.947648
2.170731,-66.068820,-7.970890
2.170731,-64.639038,-6.975538
2.170731,-64.618349,-13.942999
2.170731,-62.885338,-5.980186
2.170731,-62.172226,-14.938351
2.170731,-60.865875,-4.984835
2.170731,-58.945456,-15.933703
2.170731,-58.639039,-3.989483
2.170731,-56.263457,-2.994131
2.170731,-53.797993,-1.998780
2.170731,-51.301746,-1.003428
2.170731,-48.834052,-0.008076
2.170731,-46.454484,0.987275
2.170731,-44.222850,1.982627
2.170731,-42.199195,2.977978
2.275662,-50.503103,-15.993351
2.275662,-49.245242,-14.884039
2.275662,-48.104107,-13.774728
2.275662,-47.049847,-12.665416
2.275662,-46.057351,-11.556104
2.275662,-45.106250,-10.446793
2.275662,-44.180911,-9.337481
2.275662,-43.270441,-8.228169
2.275662,-42.368687,-7.118858
2.275662,-41.474235,-6.009546
2.275662,-40.590410,-4.900234
2.275662,-39.725275,-3.790923
2.275662,-38.891635,-2.681611
2.275662,-38.107033,-1.572299
2.275662,-37.393750,-0.462988
2.275662,-36.778807,0.646324
2.275662,-36.293966,1.755636
2.275662,-36.008741,5.083571
2.275662,-35.975725,2.864947
2.275662,-35.865324,3.974259
3.337221,-63.319530,-10.878114
3.337221,-63.197972,-9.850981
3.337221,-62.890396,-11.905247
3.337221,-62.585485,-8.823847
3.337221,-61.851073,-12.932381
3.337221,-61.542104,-7.796714
3.337221,-60.142332,-13.959514
3.337221,-60.128127,-6.769581
3.337221,-58.404125,-5.742447
3.337221,-57.705212,-14.986647
3.337221,-56.430932,-4.715314
3.337221,-54.269655,-3.688181
3.337221,-51.981664,-2.661047
3.337221,-49.628600,-1.633914
3.337221,-47.272372,-0.606781
3.337221,-44.975155,0.420353
3.337221,-42.799394,1.447486
3.337221,-40.807801,2.474619
3.337221,-39.063356,3.501753
3.337221,-37.629306,4.528886
3.434491,-49.381815,-15.167971
3.434491,-48.290305,-14.081269
3.434491,-47.272291,-12.994566
3.434491,-46.304033,-11.907863
3.434491,-45.366160,-10.821160
3.434491,-44.443661,-9.734458
3.434491,-43.525893,-8.647755
3.434491,-42.606576,-7.561052
3.434491,-41.683795,-6.474349
3.434491,-40.759998,-5.387647
3.434491,-39.842000,-4.300944
3.434491,-38.940980,-3.214241
3.434491,-38.072479,-2.127538
3.434491,-37.256406,-1.040836
3.434491,-36.517032,0.045867
3.434491,-35.882995,1.132570
3.434491,-35.387293,2.219272
3.434491,-35.125689,5.479381
3.434491,-35.067295,3.305975
3.434491,-34.964728,4.392678
4.503711,-59.454890,-10.940471
4.503711,-59.389958,-9.895596
4.503711,-58.980784,-11.985347
4.503711,-58.845598,-8.850721
4.503711,-57.908318,-13.030222
4.503711,-57.881706,-7.805845
4.503711,-56.558465,-6.760970
4.503711,-56.178455,-14.075097
4.503711,-54.936347,-5.716095
4.503711,-53.076108,-4.671219
4.503711,-51.038794,-3.626344
4.503711,-48.885734,-2.581469
4.503711,-46.678547,-1.536593
4.503711,-44.479140,-0.491718
4.503711,-42.349702,0.553157
4.503711,-40.352715,1.598033
4.503711,-38.550943,2.642908
4.503711,-37.007439,3.687783
4.503711,-35.785545,4.732659
4.503711,-34.948885,5.777534
4.593319,-47.980276,-14.274432
4.593319,-47.005843,-13.209846
4.593319,-46.069189,-12.145261
4.593319,-45.152319,-11.080675
4.593319,-44.241263,-10.016090
4.593319,-43.326066,-8.951504
4.593319,-42.400795,-7.886919
4.593319,-41.463538,-6.822333
4.593319,-40.516402,-5.757748
4.593319,-39.565513,-4.693162
4.593319,-38.621019,-3.628577
4.593319,-37.697084,-2.563991
4.593319,-36.811897,-1.499406
4.593319,-35.987663,-0.434820
4.593319,-35.250610,0.629765
4.593319,-34.630982,1.694351
4.593319,-34.163046,2.758936
4.593319,-34.072354,5.952693
4.593319,-33.885089,3.823522
4.593319,-33.839417,4.888107
5.670201,-56.211522,-10.122759
5.670201,-56.151767,-11.168369
5.670201,-55.808796,-9.077148
5.670201,-55.573155,-12.213979
5.670201,-55.000251,-8.031538
5.670201,-54.419600,-13.259589
5.670201,-53.842837,-6.985928
5.670201,-52.393793,-5.940318
5.670201,-50.710642,-4.894708
5.670201,-48.851200,-3.849098
5.670201,-46.873568,-2.803488
5.670201,-44.836133,-1.757878
5.670201,-42.797574,-0.712268
5.670201,-40.816855,0.333342
5.670201,-38.953227,1.378952
5.670201,-37.266232,2.424562
5.670201,-35.815695,3.470172
5.670201,-34.661734,4.515783
5.670201,-33.864752,5.561393
5.670201,-33.485439,6.607003
5.752147,-46.403646,-13.401865
5.752147,-45.504087,-12.363068
5.752147,-44.615422,-11.324271
5.752147,-43.724858,-10.285473
5.752147,-42.823248,-9.246676
5.752147,-41.905091,-8.207878
5.752147,-40.968528,-7.169081
5.752147,-40.015346,-6.130284
5.752147,-39.050974,-5.091486
5.752147,-38.084488,-4.052689
5.752147,-37.128607,-3.013892
5.752147,-36.199694,-1.975094
5.752147,-35.317758,-0.936297
5.752147,-34.506450,0.102500
5.752147,-33.793067,1.141298
5.752147,-33.208550,2.180095
5.752147,-32.905509,6.335284
5.752147,-32.787484,3.218892
5.752147,-32.592268,5.296487
5.752147,-32.568099,4.257690
6.313735,-51.281962,-12.129944
6.313735,-51.245485,-13.326807
6.313735,-50.950071,-10.933081
6.313735,-50.797428,-14.523671
6.313735,-50.293265,-9.736217
6.313735,-49.355233,-8.539354
6.313735,-48.179901,-7.342490
6.313735,-46.811437,-6.145627
6.313735,-45.294245,-4.948764
6.313735,-43.672966,-3.751900
6.313735,-41.992482,-2.555037
6.313735,-40.297911,-1.358174
6.313735,-38.634611,-0.161310
6.345809,-43.031020,-14.405563
6.345809,-42.212215,-13.240366
6.345809,-41.375956,-12.075169
6.345809,-40.517140,-10.909972
6.345809,-39.633449,-9.744776
6.345809,-38.725346,-8.579579
6.345809,-37.796076,-7.414382
6.345809,-36.851666,-6.249185
6.345809,-35.900924,-5.083988
6.345809,-34.955443,-3.918791
6.345809,-34.029595,-2.753594
6.345809,-33.140536,-1.588397
6.345809,-32.308203,-0.423201
6.836691,-38.429119,0.788989
6.836691,-36.798825,1.818104
6.836691,-35.355730,2.847218
6.836691,-34.153842,3.876333
6.836691,-33.247442,4.905448
6.836691,-32.691078,5.934562
6.836691,-32.539570,6.963677
6.875323,-49.488350,-13.047853
6.875323,-49.436758,-11.902913
6.875323,-49.196379,-14.192794
6.875323,-49.076972,-10.757972
6.875323,-48.444558,-9.613032
6.875323,-47.575284,-8.468091
6.875323,-46.505114,-7.323150
6.875323,-45.270216,-6.178210
6.875323,-43.906954,-5.033269
6.875323,-42.451893,-3.888328
6.875323,-40.941797,-2.743388
6.875323,-39.413630,-1.598447
6.875323,-37.904554,-0.453507
6.903709,-41.392011,-13.904033
6.903709,-40.605828,-12.787080
6.903709,-39.797522,-11.670127
6.903709,-38.964222,-10.553173
6.903709,-38.105404,-9.436220
6.903709,-37.222896,-8.319267
6.903709,-36.320874,-7.202314
6.903709,-35.405863,-6.085361
6.903709,-34.486738,-4.968408
6.903709,-33.574721,-3.851454
6.903709,-32.683385,-2.734501
6.903709,-31.828652,-1.617548
6.903709,-31.028793,-0.500595
6.910975,-32.985857,0.473063
6.910975,-32.306188,1.480613
6.910975,-31.761489,2.488164
6.910975,-31.650887,6.518366
6.910975,-31.385266,3.495715
6.910975,-31.288396,5.510816
6.910975,-31.214249,4.503265
7.436911,-48.056160,-13.048860
7.436911,-48.000324,-11.963854
7.436911,-47.823812,-14.133865
7.436911,-47.684267,-10.878849
7.436911,-47.136111,-9.793843
7.436911,-46.384140,-8.708837
7.436911,-45.456798,-7.623832
7.436911,-44.382691,-6.538826
7.436911,-43.190586,-5.453821
7.436911,-41.909409,-4.368815
7.436911,-40.568248,-3.283810
7.436911,-39.196354,-2.198804
7.436911,-37.823135,-1.113799
7.436911,-36.478162,-0.028793
7.461608,-39.890916,-13.683800
7.461608,-39.142086,-12.616199
7.461608,-38.370109,-11.548599
7.461608,-37.573374,-10.480998
7.461608,-36.752231,-9.413398
7.461608,-35.908991,-8.345797
7.461608,-35.047924,-7.278197
7.461608,-34.175264,-6.210596
7.461608,-33.299203,-5.142996
7.461608,-32.429894,-4.075395
7.461608,-31.579450,-3.007795
7.461608,-30.761948,-1.940194
7.461608,-29.993421,-0.872593
7.461608,-29.291867,0.195007
7.998499,-46.918542,-13.328920
7.998499,-46.916160,-12.305250
7.998499,-46.690183,-11.281579
7.998499,-46.675675,-14.352590
7.998499,-46.262391,-10.257909
7.998499,-45.654692,-9.234239
7.998499,-44.889122,-8.210569
7.998499,-43.987844,-7.186899
7.998499,-42.973149,-6.163229
7.998499,-41.867454,-5.139559
7.998499,-40.693306,-4.115889
7.998499,-39.473376,-3.092219
7.998499,-38.230466,-2.068549
7.998499,-36.987504,-1.044879
7.998499,-35.767545,-0.021209
8.003181,-37.048177,0.862961
8.003181,-35.584442,1.860347
8.003181,-34.289478,2.857733
8.003181,-33.209596,3.855119
8.003181,-32.391343,4.852506
8.003181,-31.881506,5.849892
8.003181,-31.727110,6.847278
8.019507,-38.593912,-13.765970
8.019507,-37.888053,-12.744800
8.019507,-37.160078,-11.723629
8.019507,-36.408884,-10.702458
8.019507,-35.635009,-9.681288
8.019507,-34.840630,-8.660117
8.019507,-34.029569,-7.638947
8.019507,-33.207285,-6.617776
8.019507,-32.380881,-5.596605
8.019507,-31.559100,-4.575435
8.019507,-30.752328,-3.554264
8.019507,-29.972589,-2.533093
8.019507,-29.233551,-1.511923
8.019507,-28.550522,-0.490752
8.069803,-31.555315,0.618330
8.069803,-30.907374,1.589328
8.069803,-30.392663,2.560325
8.069803,-30.329167,6.444315
8.069803,-30.042248,3.531322
8.069803,-29.972479,5.473317
8.069803,-29.889977,4.502320
8.560087,-46.095852,-12.905901
8.560087,-46.007143,-13.873593
8.560087,-45.987665,-11.938209
8.560087,-45.704817,-14.841285
8.560087,-45.699400,-10.970517
8.560087,-45.247980,-10.002825
8.560087,-44.650430,-9.035133
8.560087,-43.923873,-8.067441
8.560087,-43.085539,-7.099748
8.560087,-42.152755,-6.132056
8.560087,-41.142954,-5.164364
8.560087,-40.073669,-4.196672
8.560087,-38.962533,-3.228980
8.560087,-37.827283,-2.261288
8.560087,-36.685758,-1.293596
8.560087,-35.555897,-0.325904
8.577407,-37.545824,-14.154480
8.577407,-36.885889,-13.172546
8.577407,-36.205976,-12.190613
8.577407,-35.504954,-11.208679
8.577407,-34.783093,-10.226746
8.577407,-34.042069,-9.244812
8.577407,-33.284958,-8.262879
8.577407,-32.516242,-7.280945
8.577407,-31.741803,-6.299012
8.577407,-30.968930,-5.317078
8.577407,-30.206312,-4.335145
8.577407,-29.464042,-3.353211
8.577407,-28.753616,-2.371278
8.577407,-28.087934,-1.389345
8.577407,-27.481299,-0.407411
9.121675,-45.463713,-12.808844
9.121675,-45.438638,-13.732190
9.121675,-45.323141,-11.885497
9.121675,-45.234697,-14.655537
9.121675,-45.030227,-10.962151
9.121675,-44.838754,-15.578883
9.121675,-44.598361,-10.038804
9.121675,-44.041016,-9.115457
9.121675,-43.371749,-8.192111
9.121675,-42.604204,-7.268764
9.121675,-41.752106,-6.345418
9.121675,-40.829267,-5.422071
9.121675,-39.849581,-4.498725
9.121675,-38.827030,-3.575378
9.121675,-37.775676,-2.652032
9.121675,-36.709669,-1.728685
9.121675,-35.643241,-0.805339
9.121675,-34.590710,0.118008
9.135306,-36.768212,-14.836093
9.135306,-36.152640,-13.882217
9.135306,-35.519989,-12.928342
9.135306,-34.868722,-11.974467
9.135306,-34.198551,-11.020592
9.135306,-33.510437,-10.066717
9.135306,-32.806593,-9.112842
9.135306,-32.090477,-8.158967
9.135306,-31.366800,-7.205092
9.135306,-30.641521,-6.251216
9.135306,-29.921850,-5.297341
9.135306,-29.216244,-4.343466
9.135306,-28.534413,-3.389591
9.135306,-27.887312,-2.435716
9.135306,-27.287150,-1.481841
9.135306,-26.747382,-0.527966
9.169671,-36.451933,0.576195
9.169671,-35.093328,1.530312
9.169671,-33.866502,2.484429
9.169671,-32.809415,3.438547
9.169671,-31.960228,4.392664
9.169671,-31.357302,5.346781
9.169671,-31.039196,6.300898
9.228632,-30.304428,0.513632
9.228632,-29.678525,1.444426
9.228632,-29.176404,2.375221
9.228632,-28.994314,6.098398
9.228632,-28.825731,3.306015
9.228632,-28.701145,5.167603
9.228632,-28.656523,4.236809
9.683263,-45.027255,-12.947745
9.683263,-45.018204,-13.843540
9.683263,-44.889353,-12.051950
9.683263,-44.851337,-14.739336
9.683263,-44.615432,-11.156155
9.683263,-44.515868,-15.635131
9.683263,-44.216504,-10.260359
9.683263,-44.001086,-16.530926
9.683263,-43.703654,-9.364564
9.683263,-43.088043,-8.468769
9.683263,-42.380904,-7.572974
9.683263,-41.593549,-6.677178
9.683263,-40.737362,-5.781383
9.683263,-39.823802,-4.885588
9.683263,-38.864402,-3.989793
9.683263,-37.870773,-3.093997
9.683263,-36.854596,-2.198202
9.683263,-35.827632,-1.302407
9.683263,-34.801712,-0.406611
9.693205,-36.264132,-15.780404
9.693205,-35.686138,-14.840228
9.693205,-35.094882,-13.900053
9.693205,-34.488108,-12.959877
9.693205,-33.864743,-12.019702
9.693205,-33.224892,-11.079527
9.693205,-32.569839,-10.139351
9.693205,-31.902049,-9.199176
9.693205,-31.225162,-8.259000
9.693205,-30.544003,-7.318825
9.693205,-29.864571,-6.378649
9.693205,-29.194048,-5.438474
9.693205,-28.540794,-4.498299
9.693205,-27.914347,-3.558123
9.693205,-27.325426,-2.617948
9.693205,-26.785929,-1.677772
9.693205,-26.308931,-0.737597
9.693205,-25.908690,0.202578
10.244851,-44.750019,-13.207280
10.244851,-44.739373,-14.095738
10.244851,-44.623284,-12.318822
10.244851,-44.581940,-14.984196
10.244851,-44.368643,-11.430364
10.244851,-44.268388,-15.872654
10.244851,-43.995648,-10.541906
10.244851,-43.789456,-16.761112
10.244851,-43.513918,-9.653448
10.244851,-43.135958,-17.649569
10.244851,-42.933149,-8.764990
10.244851,-42.263108,-7.876532
10.244851,-41.513631,-6.988074
10.244851,-40.694632,-6.099616
10.244851,-39.816094,-5.211158
10.244851,-38.888071,-4.322700
10.244851,-37.920693,-3.434242
10.244851,-36.924160,-2.545784
10.244851,-35.908744,-1.657326
10.244851,-34.884792,-0.768868
10.251105,-36.027849,-16.939837
10.251105,-35.475178,-15.997151
10.251105,-34.914542,-15.054465
10.251105,-34.342639,-14.111780
10.251105,-33.757362,-13.169094
10.251105,-33.157794,-12.226409
10.251105,-32.544210,-11.283723
10.251105,-31.918078,-10.341038
10.251105,-31.282057,-9.398352
10.251105,-30.639998,-8.455667
10.251105,-29.996944,-7.512981
10.251105,-29.359130,-6.570295
10.251105,-28.733984,-5.627610
10.251105,-28.130123,-4.684924
10.251105,-27.557358,-3.742239
10.251105,-27.026692,-2.799553
10.251105,-26.550320,-1.856868
10.251105,-26.141626,-0.914182
10.251105,-25.815191,0.028503
10.336161,-35.191168,0.880177
10.336161,-33.992045,1.784348
10.336161,-32.910846,2.688520
10.336161,-31.977786,3.592691
10.336161,-31.223239,4.496862
10.336161,-30.677744,5.401034
10.387460,-28.677241,1.052173
10.387460,-28.171461,1.941840
10.387460,-27.798405,2.831507
10.387460,-27.743773,5.500509
10.387460,-27.583913,3.721174
10.387460,-27.555782,4.610841
10.806439,-44.589959,-13.459286
10.806439,-44.582551,-14.361668
10.806439,-44.463088,-12.556903
10.806439,-44.432261,-15.264051
10.806439,-44.210620,-11.654520
10.806439,-44.130559,-16.166433
10.806439,-43.841316,-10.752138
10.806439,-43.668995,-17.068816
10.806439,-43.364010,-9.849755
10.806439,-43.039195,-17.971199
10.806439,-42.787617,-8.947373
10.806439,-42.232861,-18.873581
10.806439,-42.121124,-8.044990
10.806439,-41.373600,-7.142608
10.806439,-40.554189,-6.240225
10.806439,-39.672111,-5.337842
10.806439,-38.736663,-4.435460
10.806439,-37.757222,-3.533077
10.806439,-36.743239,-2.630695
10.806439,-35.704241,-1.728312
10.809004,-36.055722,-18.249644
10.809004,-35.510501,-17.288239
10.809004,-34.964993,-16.326833
10.809004,-34.414438,-15.365427
10.809004,-33.855364,-14.404021
10.809004,-33.285589,-13.442615
10.809004,-32.704220,-12.481210
10.809004,-32.111653,-11.519804
10.809004,-31.509575,-10.558398
10.809004,-30.900962,-9.596992
10.809004,-30.290078,-8.635586
10.809004,-29.682477,-7.674181
10.809004,-29.085004,-6.712775
10.809004,-28.505791,-5.751369
10.809004,-27.954262,-4.789963
10.809004,-27.441129,-3.828557
10.809004,-26.978392,-2.867151
10.809004,-26.579343,-1.905746
10.809004,-26.258563,-0.944340
10.809004,-26.031920,0.017066
11.366903,-36.352387,-19.627910
11.366903,-35.791570,-18.633947
11.366903,-35.241546,-17.639984
11.366903,-34.695590,-16.646020
11.366903,-34.148451,-15.652057
11.366903,-33.596351,-14.658094
11.366903,-33.036984,-13.664131
11.366903,-32.469518,-12.670167
11.366903,-31.894596,-11.676204
11.366903,-31.314330,-10.682241
11.366903,-30.732308,-9.688278
11.366903,-30.153591,-8.694314
11.366903,-29.584713,-7.700351
11.366903,-29.033681,-6.706388
11.366903,-28.509974,-5.712425
11.366903,-28.024547,-4.718462
11.366903,-27.589825,-3.724498
11.366903,-27.219708,-2.730535
11.366903,-26.929569,-1.736572
11.366903,-26.736253,-0.742609
11.368027,-44.525164,-14.514646
11.368027,-44.506228,-13.579030
11.368027,-44.400654,-15.450262
11.368027,-44.352054,-12.643414
11.368027,-44.124573,-16.385878
11.368027,-44.070944,-11.707798
11.368027,-43.688891,-17.321494
11.368027,-43.671285,-10.772182
11.368027,-43.161556,-9.836566
11.368027,-43.085662,-18.257110
11.368027,-42.550323,-8.900950
