-14.123999,-39.095424,-8.127688
-14.123999,-38.402201,-7.233350
-14.123999,-37.641331,-6.339012
-14.123999,-36.813328,-5.444673
-14.102332,-40.218586,-22.584249
-14.102332,-39.721525,-21.667903
-14.102332,-39.268613,-20.751558
-14.102332,-38.854388,-19.835212
-14.102332,-38.474293,-18.918866
-14.102332,-38.124667,-18.002521
-14.102332,-37.802753,-17.086175
-14.102332,-37.506690,-16.169830
-14.102332,-37.235520,-15.253484
-14.102332,-36.989184,-14.337139
-14.102332,-36.768525,-13.420793
-14.102332,-36.575284,-12.504447
-14.102332,-36.522475,-5.173683
-14.102332,-36.412103,-11.588102
-14.102332,-36.325647,-6.090028
-14.102332,-36.282524,-10.671756
-14.102332,-36.202577,-7.006374
-14.102332,-36.190989,-9.755411
-14.102332,-36.144323,-7.922720
-14.102332,-36.142841,-8.839065
-13.863944,-26.757908,0.354925
-13.600758,-42.282012,-16.078998
-13.600758,-42.240592,-17.112650
-13.600758,-42.221278,-15.045346
-13.600758,-42.095728,-18.146302
-13.600758,-42.059793,-14.011695
-13.600758,-41.846242,-19.179954
-13.600758,-41.799071,-12.978043
-13.600758,-41.491067,-20.213606
-13.600758,-41.440739,-11.944391
-13.600758,-41.029249,-21.247257
-13.600758,-40.986535,-10.910739
-13.600758,-40.459947,-22.280909
-13.600758,-40.438311,-9.877087
-13.600758,-39.798030,-8.843435
-13.600758,-39.782430,-23.314561
-13.600758,-39.067766,-7.809784
-13.600758,-38.249707,-6.776132
-13.600758,-37.346152,-5.742480
-13.600758,-36.359513,-4.708828
-13.600758,-35.292314,-3.675176
-13.582528,-39.350876,-23.477054
-13.582528,-38.736459,-22.427741
-13.582528,-38.181576,-21.378429
-13.582528,-37.676502,-20.329116
-13.582528,-37.213060,-19.279803
-13.582528,-36.784620,-18.230490
-13.582528,-36.386100,-17.181177
-13.582528,-36.013966,-16.131864
-13.582528,-35.666233,-15.082551
-13.582528,-35.342462,-14.033238
-13.582528,-35.043761,-12.983925
-13.582528,-34.772790,-11.934612
-13.582528,-34.533751,-10.885299
-13.582528,-34.432864,-3.540109
-13.582528,-34.332398,-9.835987
-13.582528,-34.200617,-4.589422
-13.582528,-34.176032,-8.786674
-13.582528,-34.073501,-7.737361
-13.582528,-34.073076,-5.638735
-13.582528,-34.035201,-6.688048
-13.077518,-42.276836,-15.917963
-13.077518,-42.237728,-14.835684
-13.077518,-42.193120,-17.000242
-13.077518,-42.079218,-13.753405
-13.077518,-41.983291,-18.082521
-13.077518,-41.804866,-12.671126
-13.077518,-41.644195,-19.164800
-13.077518,-41.418364,-11.588847
-13.077518,-41.172813,-20.247078
-13.077518,-40.923539,-10.506568
-13.077518,-40.566261,-21.329357
-13.077518,-40.324353,-9.424290
-13.077518,-39.821789,-22.411636
-13.077518,-39.624905,-8.342011
-13.077518,-38.936782,-23.493915
-13.077518,-38.829424,-7.259732
-13.077518,-37.942279,-6.177453
-13.077518,-36.967971,-5.095174
-13.077518,-35.911134,-4.012895
-13.077518,-34.776541,-2.930616
-13.062724,-38.372915,-23.586231
-13.062724,-37.727033,-22.483440
-13.062724,-37.142817,-21.380649
-13.062724,-36.608342,-20.277858
-13.062724,-36.113572,-19.175067
-13.062724,-35.650359,-18.072276
-13.062724,-35.212443,-16.969486
-13.062724,-34.795453,-15.866695
-13.062724,-34.396907,-14.763904
-13.062724,-34.016209,-13.661113
-13.062724,-33.654654,-12.558322
-13.062724,-33.315421,-11.455531
-13.062724,-33.003583,-10.352740
-13.062724,-32.726097,-9.249949
-13.062724,-32.491809,-8.147158
-13.062724,-32.410158,-2.633203
-13.062724,-32.311455,-7.044367
-13.062724,-32.229665,-3.735994
-13.062724,-32.197657,-5.941576
-13.062724,-32.164927,-4.838785
-12.705116,-27.321871,0.478769
-12.554277,-42.244986,-15.616315
-12.554277,-42.219075,-14.542916
-12.554277,-42.139722,-16.689714
-12.554277,-42.067114,-13.469517
-12.554277,-41.898292,-17.763113
-12.554277,-41.794354,-12.396119
-12.554277,-41.515835,-18.836511
-12.554277,-41.406179,-11.322720
-12.554277,-40.987618,-19.909910
-12.554277,-40.908102,-10.249321
-12.554277,-40.309040,-20.983309
-12.554277,-40.305768,-9.175922
-12.554277,-39.604951,-8.102523
-12.554277,-39.475632,-22.056708
-12.554277,-38.811556,-7.029125
-12.554277,-38.483052,-23.130107
-12.554277,-37.931618,-5.955726
-12.554277,-36.971302,-4.882327
-12.554277,-35.936905,-3.808928
-12.554277,-34.834852,-2.735530
-12.542920,-37.374374,-23.096720
-12.542920,-36.757824,-21.992359
-12.542920,-36.193569,-20.887998
-12.542920,-35.669891,-19.783637
-12.542920,-35.176973,-18.679276
-12.542920,-34.706893,-17.574915
-12.542920,-34.253632,-16.470554
-12.542920,-33.813069,-15.366193
-12.542920,-33.382979,-14.261832
-12.542920,-32.963041,-13.157470
-12.542920,-32.554829,-12.053109
-12.542920,-32.161819,-10.948748
-12.542920,-31.789383,-9.844387
-12.542920,-31.444795,-8.740026
-12.542920,-31.137226,-7.635665
-12.542920,-30.877746,-6.531304
-12.542920,-30.679327,-5.426943
-12.542920,-30.608611,-2.113860
-12.542920,-30.556836,-4.322582
-12.542920,-30.527042,-3.218221
-12.031036,-42.211957,-15.130802
-12.031036,-42.177632,-14.097390
-12.031036,-42.116284,-16.164215
-12.031036,-42.019488,-13.063977
-12.031036,-41.884543,-17.197628
-12.031036,-41.743818,-12.030564
-12.031036,-41.510779,-18.231041
-12.031036,-41.357025,-10.997151
-12.031036,-40.989147,-19.264454
-12.031036,-40.865627,-9.963738
-12.031036,-40.313914,-20.297867
-12.031036,-40.276251,-8.930325
-12.031036,-39.595637,-7.896912
-12.031036,-39.479462,-21.331280
-12.031036,-38.830639,-6.863499
-12.031036,-38.480281,-22.364693
-12.031036,-37.988220,-5.830086
-12.031036,-37.075457,-4.796673
-12.031036,-36.099538,-3.763260
-12.031036,-35.067763,-2.729847
-12.023116,-36.474176,-22.176292
-12.023116,-35.912578,-21.100194
-12.023116,-35.388222,-20.024097
-12.023116,-34.891120,-18.947999
-12.023116,-34.412994,-17.871902
-12.023116,-33.947282,-16.795805
-12.023116,-33.489130,-15.719707
-12.023116,-33.035398,-14.643610
-12.023116,-32.584658,-13.567512
-12.023116,-32.137194,-12.491415
-12.023116,-31.695001,-11.415317
-12.023116,-31.261787,-10.339220
-12.023116,-30.842971,-9.263122
-12.023116,-30.445685,-8.187025
-12.023116,-30.078772,-7.110928
-12.023116,-29.752788,-6.034830
-12.023116,-29.479999,-4.958733
-12.023116,-29.274387,-3.882635
-12.023116,-29.151641,-2.806538
-12.023116,-29.129166,-1.730440
-11.546288,-28.160192,0.442015
-11.507795,-42.190517,-14.447825
-11.507795,-42.136809,-15.430399
-11.507795,-42.121034,-13.465251
-11.507795,-41.953289,-16.412974
-11.507795,-41.935073,-12.482677
-11.507795,-41.639440,-11.500103
-11.507795,-41.633425,-17.395548
-11.507795,-41.241029,-10.517529
-11.507795,-41.170779,-18.378122
-11.507795,-40.746831,-9.534955
-11.507795,-40.559005,-19.360696
-11.507795,-40.163923,-8.552381
-11.507795,-39.791846,-20.343270
-11.507795,-39.499477,-7.569807
-11.507795,-38.863139,-21.325844
-11.507795,-38.760756,-6.587233
-11.507795,-37.955113,-5.604659
-11.507795,-37.089995,-4.622085
-11.507795,-36.172938,-3.639511
-11.507795,-35.211571,-2.656937
-11.503312,-35.760996,-20.975545
-11.503312,-35.251793,-19.940456
-11.503312,-34.764461,-18.905367
-11.503312,-34.291238,-17.870278
-11.503312,-33.825829,-16.835188
-11.503312,-33.363405,-15.800099
-11.503312,-32.900602,-14.765010
-11.503312,-32.435522,-13.729921
-11.503312,-31.967731,-12.694831
-11.503312,-31.498262,-11.659742
-11.503312,-31.029615,-10.624653
-11.503312,-30.565752,-9.589563
-11.503312,-30.112103,-8.554474
-11.503312,-29.675563,-7.519385
-11.503312,-29.264492,-6.484296
-11.503312,-28.888718,-5.449206
-11.503312,-28.559530,-4.414117
-11.503312,-28.289686,-3.379028
-11.503312,-28.093410,-2.343939
-11.503312,-27.986389,-1.308849
-10.984555,-42.189251,-14.514646
-10.984555,-42.173232,-13.579030
-10.984555,-42.083927,-15.450262
-10.984555,-42.042817,-12.643414
-10.984555,-41.850390,-16.385878
-10.984555,-41.805025,-11.707798
-10.984555,-41.481845,-17.321494
-10.984555,-41.466952,-10.772182
-10.984555,-41.035770,-9.836566
-10.984555,-40.971572,-18.257110
-10.984555,-40.518726,-8.900950
-10.984555,-40.312926,-19.192726
-10.984555,-39.923142,-7.965335
-10.984555,-39.499340,-20.128342
-10.984555,-39.256413,-7.029719
-10.984555,-38.526013,-6.094103
-10.984555,-37.739490,-5.158487
-10.984555,-36.904465,-4.222871
-10.984555,-36.028637,-3.287255
-10.984555,-35.119780,-2.351639
-10.983508,-35.275874,-19.627910
-10.983508,-34.801477,-18.633947
-10.983508,-34.336210,-17.639984
-10.983508,-33.874384,-16.646020
-10.983508,-33.411558,-15.652057
-10.983508,-32.944534,-14.658094
-10.983508,-32.471364,-13.664131
-10.983508,-31.991344,-12.670167
-10.983508,-31.505015,-11.676204
-10.983508,-31.014166,-10.682241
-10.983508,-30.521832,-9.688278
-10.983508,-30.032294,-8.694314
-10.983508,-29.551078,-7.700351
-10.983508,-29.084958,-6.706388
-10.983508,-28.641953,-5.712425
-10.983508,-28.231328,-4.718462
-10.983508,-27.863596,-3.724498
-10.983508,-27.550513,-2.730535
-10.983508,-27.305083,-1.736572
-10.983508,-27.141557,-0.742609
-10.463704,-35.024924,-18.249644
-10.463704,-34.563720,-17.288239
-10.463704,-34.102273,-16.326833
-10.463704,-33.636557,-15.365427
-10.463704,-33.163635,-14.404021
-10.463704,-32.681660,-13.442615
-10.463704,-32.189878,-12.481210
-10.463704,-31.688624,-11.519804
-10.463704,-31.179325,-10.558398
-10.463704,-30.664497,-9.596992
-10.463704,-30.147748,-8.635586
-10.463704,-29.633777,-7.674181
-10.463704,-29.128372,-6.712775
-10.463704,-28.638415,-5.751369
-10.463704,-28.171875,-4.789963
-10.463704,-27.737813,-3.828557
-10.463704,-27.346383,-2.867151
-10.463704,-27.008827,-1.905746
-10.463704,-26.737477,-0.944340
-10.463704,-26.545760,0.017066
-10.461314,-42.244060,-13.459286
-10.461314,-42.237795,-14.361668
-10.461314,-42.136740,-12.556903
-10.461314,-42.110663,-15.264051
-10.461314,-41.923177,-11.654520
-10.461314,-41.855453,-16.166433
-10.461314,-41.610782,-10.752138
-10.461314,-41.465015,-17.068816
-10.461314,-41.207027,-9.849755
-10.461314,-40.932265,-17.971199
-10.461314,-40.719454,-8.947373
-10.461314,-40.250185,-18.873581
-10.461314,-40.155666,-8.044990
-10.461314,-39.523333,-7.142608
-10.461314,-38.830191,-6.240225
-10.461314,-38.084038,-5.337842
-10.461314,-37.292740,-4.435460
-10.461314,-36.464228,-3.533077
-10.461314,-35.606496,-2.630695
-10.461314,-34.727605,-1.728312
-10.387460,-28.783444,1.052173
-10.387460,-28.355604,1.941840
-10.387460,-28.040035,2.831507
-10.387460,-27.993822,5.500509
-10.387460,-27.858595,3.721174
-10.387460,-27.834799,4.610841
-10.336161,-34.293595,0.880177
-10.336161,-33.279253,1.784348
-10.336161,-32.364664,2.688520
-10.336161,-31.575385,3.592691
-10.336161,-30.937112,4.496862
-10.336161,-30.475676,5.401034
-9.943900,-35.001346,-16.939837
-9.943900,-34.533840,-15.997151
-9.943900,-34.059596,-15.054465
-9.943900,-33.575822,-14.111780
-9.943900,-33.080734,-13.169094
-9.943900,-32.573558,-12.226409
-9.943900,-32.054525,-11.283723
-9.943900,-31.524878,-10.341038
-9.943900,-30.986866,-9.398352
-9.943900,-30.443746,-8.455667
-9.943900,-29.899785,-7.512981
-9.943900,-29.360257,-6.570295
-9.943900,-28.831443,-5.627610
-9.943900,-28.320635,-4.684924
-9.943900,-27.836132,-3.742239
-9.943900,-27.387240,-2.799553
-9.943900,-26.984275,-1.856868
-9.943900,-26.638560,-0.914182
-9.943900,-26.362428,0.028503
-9.938073,-42.379456,-13.207280
-9.938073,-42.370451,-14.095738
-9.938073,-42.272250,-12.318822
-9.938073,-42.237277,-14.984196
-9.938073,-42.056849,-11.430364
-9.938073,-41.972043,-15.872654
-9.938073,-41.741331,-10.541906
-9.938073,-41.566913,-16.761112
-9.938073,-41.333835,-9.653448
-9.938073,-41.014117,-17.649569
-9.938073,-40.842561,-8.764990
-9.938073,-40.275770,-7.876532
-9.938073,-39.641786,-6.988074
-9.938073,-38.948992,-6.099616
-9.938073,-38.205834,-5.211158
-9.938073,-37.420817,-4.322700
-9.938073,-36.602509,-3.434242
-9.938073,-35.759538,-2.545784
-9.938073,-34.900595,-1.657326
-9.938073,-34.034431,-0.768868
-9.424096,-35.201218,-15.780404
-9.424096,-34.712292,-14.840228
-9.424096,-34.212146,-13.900053
-9.424096,-33.698875,-12.959877
-9.424096,-33.171568,-12.019702
-9.424096,-32.630316,-11.079527
-9.424096,-32.076205,-10.139351
-9.424096,-31.511319,-9.199176
-9.424096,-30.938739,-8.259000
-9.424096,-30.362544,-7.318825
-9.424096,-29.787811,-6.378649
-9.424096,-29.220614,-5.438474
-9.424096,-28.668024,-4.498299
-9.424096,-28.138110,-3.558123
-9.424096,-27.639940,-2.617948
-9.424096,-27.183578,-1.677772
-9.424096,-26.780084,-0.737597
-9.424096,-26.441519,0.202578
-9.414832,-42.613971,-12.947745
-9.414832,-42.606314,-13.843540
-9.414832,-42.497319,-12.051950
-9.414832,-42.465161,-14.739336
-9.414832,-42.265609,-11.156155
-9.414832,-42.181387,-15.635131
-9.414832,-41.928154,-10.260359
-9.414832,-41.745931,-16.530926
-9.414832,-41.494333,-9.364564
-9.414832,-40.973585,-8.468769
-9.414832,-40.375415,-7.572974
-9.414832,-39.709389,-6.677178
-9.414832,-38.985137,-5.781383
-9.414832,-38.212354,-4.885588
-9.414832,-37.400795,-3.989793
-9.414832,-36.560281,-3.093997
-9.414832,-35.700694,-2.198202
-9.414832,-34.831982,-1.302407
-9.414832,-33.964153,-0.406611
-9.228632,-30.159887,0.513632
-9.228632,-29.630434,1.444426
-9.228632,-29.205688,2.375221
-9.228632,-29.051658,6.098398
-9.228632,-28.909052,3.306015
-9.228632,-28.803665,5.167603
-9.228632,-28.765919,4.236809
-9.169671,-35.360080,0.576195
-9.169671,-34.210832,1.530312
-9.169671,-33.173056,2.484429
-9.169671,-32.278863,3.438547
-9.169671,-31.560533,4.392664
-9.169671,-31.050516,5.346781
-9.169671,-30.781429,6.300898
-8.904292,-35.627622,-14.836093
-8.904292,-35.106907,-13.882217
-8.904292,-34.571745,-12.928342
-8.904292,-34.020837,-11.974467
-8.904292,-33.453937,-11.020592
-8.904292,-32.871860,-10.066717
-8.904292,-32.276476,-9.112842
-8.904292,-31.670711,-8.158967
-8.904292,-31.058550,-7.205092
-8.904292,-30.445035,-6.251216
-8.904292,-29.836263,-5.297341
-8.904292,-29.239389,-4.343466
-8.904292,-28.662626,-3.389591
-8.904292,-28.115242,-2.435716
-8.904292,-27.607562,-1.481841
-8.904292,-27.150971,-0.527966
-8.891592,-42.983172,-12.808844
-8.891592,-42.961961,-13.732190
-8.891592,-42.864261,-11.885497
-8.891592,-42.789447,-14.655537
-8.891592,-42.616485,-10.962151
-8.891592,-42.454517,-15.578883
-8.891592,-42.251168,-10.038804
-8.891592,-41.779708,-9.115457
-8.891592,-41.213574,-8.192111
-8.891592,-40.564305,-7.268764
-8.891592,-39.843512,-6.345418
-8.891592,-39.062880,-5.422071
-8.891592,-38.234161,-4.498725
-8.891592,-37.369181,-3.575378
-8.891592,-36.479838,-2.652032
-8.891592,-35.578100,-1.728685
-8.891592,-34.676005,-0.805339
-8.891592,-33.785666,0.118008
-8.384488,-36.285406,-14.154480
-8.384488,-35.727165,-13.172546
-8.384488,-35.152024,-12.190613
-8.384488,-34.559027,-11.208679
-8.384488,-33.948403,-10.226746
-8.384488,-33.321569,-9.244812
-8.384488,-32.681126,-8.262879
-8.384488,-32.030867,-7.280945
-8.384488,-31.375767,-6.299012
-8.384488,-30.721991,-5.317078
-8.384488,-30.076890,-4.335145
-8.384488,-29.449002,-3.353211
-8.384488,-28.848050,-2.371278
-8.384488,-28.284948,-1.389345
-8.384488,-27.771793,-0.407411
-8.368351,-43.517901,-12.905901
-8.368351,-43.442861,-13.873593
-8.368351,-43.426384,-11.938209
-8.368351,-43.187123,-14.841285
-8.368351,-43.182540,-10.970517
-8.368351,-42.800683,-10.002825
-8.368351,-42.295213,-9.035133
-8.368351,-41.680617,-8.067441
-8.368351,-40.971467,-7.099748
-8.368351,-40.182423,-6.132056
-8.368351,-39.328229,-5.164364
-8.368351,-38.423717,-4.196672
-8.368351,-37.483804,-3.228980
-8.368351,-36.523493,-2.261288
-8.368351,-35.557873,-1.293596
-8.368351,-34.602121,-0.325904
-8.069803,-31.218016,0.618330
-8.069803,-30.669920,1.589328
-8.069803,-30.234525,2.560325
-8.069803,-30.180814,6.444315
-8.069803,-29.938108,3.531322
-8.069803,-29.879091,5.473317
-8.069803,-29.809302,4.502320
-8.003181,-35.864445,0.862961
-8.003181,-34.626267,1.860347
-8.003181,-33.530853,2.857733
-8.003181,-32.617377,3.855119
-8.003181,-31.925215,4.852506
-8.003181,-31.493942,5.849892
-8.003181,-31.363338,6.847278
-7.864684,-37.171987,-13.765970
-7.864684,-36.574898,-12.744800
-7.864684,-35.959102,-11.723629
-7.864684,-35.323665,-10.702458
-7.864684,-34.669041,-9.681288
-7.864684,-33.997074,-8.660117
-7.864684,-33.310995,-7.638947
-7.864684,-32.615422,-6.617776
-7.864684,-31.916365,-5.596605
-7.864684,-31.221218,-4.575435
-7.864684,-30.538767,-3.554264
-7.864684,-29.879183,-2.533093
-7.864684,-29.254029,-1.511923
-7.864684,-28.676253,-0.490752
-7.845110,-44.213816,-13.328920
-7.845110,-44.211801,-12.305250
-7.845110,-44.020647,-11.281579
-7.845110,-44.008374,-14.352590
-7.845110,-43.658776,-10.257909
-7.845110,-43.144722,-9.234239
-7.845110,-42.497124,-8.210569
-7.845110,-41.734730,-7.186899
-7.845110,-40.876396,-6.163229
-7.845110,-39.941086,-5.139559
-7.845110,-38.947870,-4.115889
-7.845110,-37.915928,-3.092219
-7.845110,-36.864547,-2.068549
-7.845110,-35.813121,-1.044879
-7.845110,-34.781154,-0.021209
-7.344880,-38.269126,-13.683800
-7.344880,-37.635689,-12.616199
-7.344880,-36.982671,-11.548599
-7.344880,-36.308710,-10.480998
-7.344880,-35.614103,-9.413398
-7.344880,-34.900803,-8.345797
-7.344880,-34.172425,-7.278197
-7.344880,-33.434239,-6.210596
-7.344880,-32.693176,-5.142996
-7.344880,-31.957825,-4.075395
-7.344880,-31.238432,-3.007795
-7.344880,-30.546904,-1.940194
-7.344880,-29.896805,-0.872593
-7.344880,-29.303358,0.195007
-7.321869,-45.176131,-13.048860
-7.321869,-45.128899,-11.963854
-7.321869,-44.979587,-14.133865
-7.321869,-44.861545,-10.878849
-7.321869,-44.397858,-9.793843
-7.321869,-43.761764,-8.708837
-7.321869,-42.977323,-7.623832
-7.321869,-42.068732,-6.538826
-7.321869,-41.060327,-5.453821
-7.321869,-39.976575,-4.368815
-7.321869,-38.842084,-3.283810
-7.321869,-37.681594,-2.198804
-7.321869,-36.519984,-1.113799
-7.321869,-35.382268,-0.028793
-6.910975,-32.428116,0.473063
-6.910975,-31.853182,1.480613
-6.910975,-31.392419,2.488164
-6.910975,-31.298861,6.518366
-6.910975,-31.074171,3.495715
-6.910975,-30.992228,5.510816
-6.910975,-30.929508,4.503265
-6.836691,-37.032588,0.788989
-6.836691,-35.653517,1.818104
-6.836691,-34.432798,2.847218
-6.836691,-33.416118,3.876333
-6.836691,-32.649391,4.905448
-6.836691,-32.178761,5.934562
-6.836691,-32.050600,6.963677
-6.825076,-39.538907,-13.904033
-6.825076,-38.873873,-12.787080
-6.825076,-38.190124,-11.670127
-6.825076,-37.485233,-10.553173
-6.825076,-36.758756,-9.436220
-6.825076,-36.012240,-8.319267
-6.825076,-35.249217,-7.202314
-6.825076,-34.475207,-6.085361
-6.825076,-33.697715,-4.968408
-6.825076,-32.926237,-3.851454
-6.825076,-32.172254,-2.734501
-6.825076,-31.449233,-1.617548
-6.825076,-30.772629,-0.500595
-6.798629,-46.387624,-13.047853
-6.798629,-46.343983,-11.902913
-6.798629,-46.140646,-14.192794
-6.798629,-46.039639,-10.757972
-6.798629,-45.504678,-9.613032
-6.798629,-44.769356,-8.468091
-6.798629,-43.864097,-7.323150
-6.798629,-42.819493,-6.178210
-6.798629,-41.666305,-5.033269
-6.798629,-40.435465,-3.888328
-6.798629,-39.158070,-2.743388
-6.798629,-37.865388,-1.598447
-6.798629,-36.588856,-0.453507
-6.305272,-40.925350,-14.405563
-6.305272,-40.232720,-13.240366
-6.305272,-39.525326,-12.075169
-6.305272,-38.798851,-10.909972
-6.305272,-38.051334,-9.744776
-6.305272,-37.283167,-8.579579
-6.305272,-36.497095,-7.414382
-6.305272,-35.698215,-6.249185
-6.305272,-34.893980,-5.083988
-6.305272,-34.094195,-3.918791
-6.305272,-33.311017,-2.753594
-6.305272,-32.558959,-1.588397
-6.305272,-31.854886,-0.423201
-6.275388,-47.904846,-12.129944
-6.275388,-47.873990,-13.326807
-6.275388,-47.624099,-10.933081
-6.275388,-47.494978,-14.523671
-6.275388,-47.068505,-9.736217
-6.275388,-46.275020,-8.539354
-6.275388,-45.280804,-7.342490
-6.275388,-44.123216,-6.145627
-6.275388,-42.839818,-4.948764
-6.275388,-41.468374,-3.751900
-6.275388,-40.046847,-2.555037
-6.275388,-38.613405,-1.358174
-6.275388,-37.206414,-0.161310
-5.752147,-43.778264,-13.401865
-5.752147,-43.017325,-12.363068
-5.752147,-42.265600,-11.324271
-5.752147,-41.512269,-10.285473
-5.752147,-40.749595,-9.246676
-5.752147,-39.972923,-8.207878
-5.752147,-39.180682,-7.169081
-5.752147,-38.374382,-6.130284
-5.752147,-37.558617,-5.091486
-5.752147,-36.741063,-4.052689
-5.752147,-35.932481,-3.013892
-5.752147,-35.146711,-1.975094
-5.752147,-34.400678,-0.936297
-5.752147,-33.714390,0.102500
-5.752147,-33.110938,1.141298
-5.752147,-32.616493,2.180095
-5.752147,-32.360149,6.335284
-5.752147,-32.260312,3.218892
-5.752147,-32.095177,5.296487
-5.752147,-32.074733,4.257690
-5.670201,-52.074776,-10.122759
-5.670201,-52.024229,-11.168369
-5.670201,-51.734109,-9.077148
-5.670201,-51.534779,-12.213979
-5.670201,-51.050159,-8.031538
-5.670201,-50.558984,-13.259589
-5.670201,-50.071099,-6.985928
-5.670201,-48.845347,-5.940318
-5.670201,-47.421565,-4.894708
-5.670201,-45.848658,-3.849098
-5.670201,-44.175772,-2.803488
-5.670201,-42.452301,-1.757878
-5.670201,-40.727877,-0.712268
-5.670201,-39.052381,0.333342
-5.670201,-37.475932,1.378952
-5.670201,-36.048898,2.424562
-5.670201,-34.821885,3.470172
-5.670201,-33.845746,4.515783
-5.670201,-33.171576,5.561393
-5.670201,-32.850714,6.607003
-4.593319,-45.111940,-14.274432
-4.593319,-44.287665,-13.209846
-4.593319,-43.495346,-12.145261
-4.593319,-42.719763,-11.080675
-4.593319,-41.949097,-10.016090
-4.593319,-41.174930,-8.951504
-4.593319,-40.392241,-7.886919
-4.593319,-39.599412,-6.822333
-4.593319,-38.798227,-5.757748
-4.593319,-37.993867,-4.693162
-4.593319,-37.194916,-3.628577
-4.593319,-36.413357,-2.563991
-4.593319,-35.664575,-1.499406
-4.593319,-34.967353,-0.434820
-4.593319,-34.343877,0.629765
-4.593319,-33.819732,1.694351
-4.593319,-33.423904,2.758936
-4.593319,-33.347187,5.952693
-4.593319,-33.188779,3.823522
-4.593319,-33.150144,4.888107
-4.503711,-54.818351,-10.940471
-4.503711,-54.763425,-9.895596
-4.503711,-54.417303,-11.985347
-4.503711,-54.302949,-8.850721
-4.503711,-53.510101,-13.030222
-4.503711,-53.487589,-7.805845
-4.503711,-52.368256,-6.760970
-4.503711,-52.046805,-14.075097
-4.503711,-50.996102,-5.716095
-4.503711,-49.422520,-4.671219
-4.503711,-47.699149,-3.626344
-4.503711,-45.877870,-2.581469
-4.503711,-44.010804,-1.536593
-4.503711,-42.150318,-0.491718
-4.503711,-40.349021,0.553157
-4.503711,-38.659763,1.598033
-4.503711,-37.135639,2.642908
-4.503711,-35.829985,3.687783
-4.503711,-34.796380,4.732659
-4.503711,-34.088647,5.777534
-3.434491,-46.297506,-15.167971
-3.434491,-45.374195,-14.081269
-3.434491,-44.513053,-12.994566
-3.434491,-43.694001,-11.907863
-3.434491,-42.900651,-10.821160
-3.434491,-42.120307,-9.734458
-3.434491,-41.343964,-8.647755
-3.434491,-40.566311,-7.561052
-3.434491,-39.785728,-6.474349
-3.434491,-39.004285,-5.387647
-3.434491,-38.227748,-4.300944
-3.434491,-37.465572,-3.214241
-3.434491,-36.730905,-2.127538
-3.434491,-36.040586,-1.040836
-3.434491,-35.415148,0.045867
-3.434491,-34.878813,1.132570
-3.434491,-34.459498,2.219272
-3.434491,-34.238206,5.479381
-3.434491,-34.188810,3.305975
-3.434491,-34.102049,4.392678
-3.337221,-58.087462,-10.878114
-3.337221,-57.984635,-9.850981
-3.337221,-57.724456,-11.905247
-3.337221,-57.466531,-8.823847
-3.337221,-56.845290,-12.932381
-3.337221,-56.583931,-7.796714
-3.337221,-55.399860,-13.959514
-3.337221,-55.387844,-6.769581
-3.337221,-53.929505,-5.742447
-3.337221,-53.338293,-14.986647
-3.337221,-52.260376,-4.715314
-3.337221,-50.432145,-3.688181
-3.337221,-48.496726,-2.661047
-3.337221,-46.506263,-1.633914
-3.337221,-44.513122,-0.606781
-3.337221,-42.569899,0.420353
-3.337221,-40.729417,1.447486
-3.337221,-39.044722,2.474619
-3.337221,-37.569090,3.501753
-3.337221,-36.356024,4.528886
-2.275662,-47.246007,-15.993351
-2.275662,-46.181979,-14.884039
-2.275662,-45.216689,-13.774728
-2.275662,-44.324887,-12.665416
-2.275662,-43.485333,-11.556104
-2.275662,-42.680793,-10.446793
-2.275662,-41.898046,-9.337481
-2.275662,-41.127877,-8.228169
-2.275662,-40.365080,-7.118858
-2.275662,-39.608461,-6.009546
-2.275662,-38.860830,-4.900234
-2.275662,-38.129010,-3.790923
-2.275662,-37.423832,-2.681611
-2.275662,-36.760134,-1.572299
-2.275662,-36.156766,-0.462988
-2.275662,-35.636584,0.646324
-2.275662,-35.226455,1.755636
-2.275662,-34.985183,5.083571
-2.275662,-34.957254,2.864947
-2.275662,-34.863866,3.974259
-2.170731,-61.908511,-10.956944
-2.170731,-61.814224,-9.961593
-2.170731,-61.534022,-11.952296
-2.170731,-61.299554,-8.966241
-2.170731,-60.642561,-12.947648
-2.170731,-60.413094,-7.970890
-2.170731,-59.203638,-6.975538
-2.170731,-59.186137,-13.942999
-2.170731,-57.720178,-5.980186
-2.170731,-57.116954,-14.938351
-2.170731,-56.011907,-4.984835
-2.170731,-54.387419,-15.933703
-2.170731,-54.128220,-3.989483
-2.170731,-52.118708,-2.994131
-2.170731,-50.033164,-1.998780
-2.170731,-47.921581,-1.003428
-2.170731,-45.834152,-0.008076
-2.170731,-43.821268,0.987275
-2.170731,-41.933522,1.982627
-2.170731,-40.221706,2.977978
-1.116834,-47.805504,-16.647130
-1.116834,-46.563484,-15.507745
-1.116834,-45.461538,-14.368360
-1.116834,-44.468807,-13.228974
-1.116834,-43.558892,-12.089589
-1.116834,-42.709859,-10.950204
-1.116834,-41.904232,-9.810819
-1.116834,-41.128999,-8.671433
-1.116834,-40.375609,-7.532048
-1.116834,-39.639973,-6.392663
-1.116834,-38.922463,-5.253278
-1.116834,-38.227913,-4.113893
-1.116834,-37.565619,-2.974507
-1.116834,-36.949338,-1.835122
-1.116834,-36.397290,-0.695737
-1.116834,-35.932155,0.443648
-1.116834,-35.581075,1.583034
-1.116834,-35.550518,5.001189
-1.116834,-35.375655,2.722419
-1.116834,-35.351960,3.861804
-1.004242,-66.349302,-11.109969
-1.004242,-66.294763,-10.154202
-1.004242,-65.937878,-12.065736
-1.004242,-65.819207,-9.198435
-1.004242,-65.015713,-13.021503
-1.004242,-64.967750,-8.242668
-1.004242,-63.785678,-7.286901
-1.004242,-63.538202,-13.977270
-1.004242,-62.318448,-6.331134
-1.004242,-61.460908,-14.933037
-1.004242,-60.611685,-5.375367
-1.004242,-58.739564,-15.888804
-1.004242,-58.711186,-4.419600
-1.004242,-56.662917,-3.463833
-1.004242,-55.330074,-16.844571
-1.004242,-54.513014,-2.508066
-1.004242,-52.307782,-1.552299
-1.004242,-50.093697,-0.596532
-1.004242,-47.917405,0.359235
-1.004242,-45.825722,1.315002
-0.162248,-71.494238,-11.207534
-0.162248,-71.449109,-10.289125
-0.162248,-71.078926,-12.125944
-0.162248,-70.985289,-9.370715
-0.162248,-70.161566,-13.044354
-0.162248,-70.144676,-8.452305
-0.162248,-68.969311,-7.533895
-0.162248,-68.700695,-13.962764
-0.162248,-67.501379,-6.615486
-0.162248,-66.654997,-14.881174
-0.162248,-65.783213,-5.697076
-0.162248,-63.983301,-15.799583
-0.162248,-63.857288,-4.778666
-0.162248,-61.766224,-3.860256
-0.162248,-60.644578,-16.717993
-0.162248,-59.552788,-2.941846
-0.162248,-57.259891,-2.023437
-0.162248,-56.597946,-17.636403
-0.162248,-54.930587,-1.105027
-0.162248,-52.608077,-0.186617
-0.041994,-47.724440,-17.011558
-0.041994,-46.284109,-15.824416
-0.041994,-45.028753,-14.637274
-0.041994,-43.920909,-13.450132
-0.041994,-42.928372,-12.262990
-0.041994,-42.024192,-11.075848
-0.041994,-41.186682,-9.888707
-0.041994,-40.399408,-8.701565
-0.041994,-39.651197,-7.514423
-0.041994,-38.936134,-6.327281
-0.041994,-38.253561,-5.140139
-0.041994,-37.608078,-3.952997
-0.041994,-37.009546,-2.765855
-0.041994,-36.473079,-1.578713
-0.041994,-36.066716,5.544139
-0.041994,-36.019053,-0.391571
-0.041994,-35.673101,0.795571
-0.041994,-35.618884,4.356997
-0.041994,-35.466113,1.982713
-0.041994,-35.434238,3.169855
0.041994,-47.724440,-17.011558
0.041994,-46.284109,-15.824416
0.041994,-45.028753,-14.637274
0.041994,-43.920909,-13.450132
0.041994,-42.928372,-12.262990
0.041994,-42.024192,-11.075848
0.041994,-41.186682,-9.888707
0.041994,-40.399408,-8.701565
0.041994,-39.651197,-7.514423
0.041994,-38.936134,-6.327281
0.041994,-38.253561,-5.140139
0.041994,-37.608078,-3.952997
0.041994,-37.009546,-2.765855
0.041994,-36.473079,-1.578713
0.041994,-36.066716,5.544139
0.041994,-36.019053,-0.391571
0.041994,-35.673101,0.795571
0.041994,-35.618884,4.356997
0.041994,-35.466113,1.982713
0.041994,-35.434238,3.169855
0.162248,-71.494238,-11.207534
0.162248,-71.449109,-10.289125
0.162248,-71.078926,-12.125944
0.162248,-70.985289,-9.370715
0.162248,-70.161566,-13.044354
0.162248,-70.144676,-8.452305
0.162248,-68.969311,-7.533895
0.162248,-68.700695,-13.962764
0.162248,-67.501379,-6.615486
0.162248,-66.654997,-14.881174
0.162248,-65.783213,-5.697076
0.162248,-63.983301,-15.799583
0.162248,-63.857288,-4.778666
0.162248,-61.766224,-3.860256
0.162248,-60.644578,-16.717993
0.162248,-59.552788,-2.941846
0.162248,-57.259891,-2.023437
0.162248,-56.597946,-17.636403
0.162248,-54.930587,-1.105027
0.162248,-52.608077,-0.186617
1.004242,-66.349302,-11.109969
1.004242,-66.294763,-10.154202
1.004242,-65.937878,-12.065736
1.004242,-65.819207,-9.198435
1.004242,-65.015713,-13.021503
1.004242,-64.967750,-8.242668
1.004242,-63.785678,-7.286901
1.004242,-63.538202,-13.977270
1.004242,-62.318448,-6.331134
1.004242,-61.460908,-14.933037
1.004242,-60.611685,-5.375367
1.004242,-58.739564,-15.888804
1.004242,-58.711186,-4.419600
1.004242,-56.662917,-3.463833
1.004242,-55.330074,-16.844571
1.004242,-54.513014,-2.508066
1.004242,-52.307782,-1.552299
1.004242,-50.093697,-0.596532
1.004242,-47.917405,0.359235
1.004242,-45.825722,1.315002
1.116834,-47.805504,-16.647130
1.116834,-46.563484,-15.507745
1.116834,-45.461538,-14.368360
1.116834,-44.468807,-13.228974
1.116834,-43.558892,-12.089589
1.116834,-42.709859,-10.950204
1.116834,-41.904232,-9.810819
1.116834,-41.128999,-8.671433
1.116834,-40.375609,-7.532048
1.116834,-39.639973,-6.392663
1.116834,-38.922463,-5.253278
1.116834,-38.227913,-4.113893
1.116834,-37.565619,-2.974507
1.116834,-36.949338,-1.835122
1.116834,-36.397290,-0.695737
1.116834,-35.932155,0.443648
1.116834,-35.581075,1.583034
1.116834,-35.550518,5.001189
1.116834,-35.375655,2.722419
1.116834,-35.351960,3.861804
2.170731,-61.908511,-10.956944
2.170731,-61.814224,-9.961593
2.170731,-61.534022,-11.952296
2.170731,-61.299554,-8.966241
2.170731,-60.642561,-12.947648
2.170731,-60.413094,-7.970890
2.170731,-59.203638,-6.975538
2.170731,-59.186137,-13.942999
2.170731,-57.720178,-5.980186
2.170731,-57.116954,-14.938351
2.170731,-56.011907,-4.984835
2.170731,-54.387419,-15.933703
2.170731,-54.128220,-3.989483
2.170731,-52.118708,-2.994131
2.170731,-50.033164,-1.998780
2.170731,-47.921581,-1.003428
2.170731,-45.834152,-0.008076
2.170731,-43.821268,0.987275
2.170731,-41.933522,1.982627
2.170731,-40.221706,2.977978
2.275662,-47.246007,-15.993351
2.275662,-46.181979,-14.884039
2.275662,-45.216689,-13.774728
2.275662,-44.324887,-12.665416
2.275662,-43.485333,-11.556104
2.275662,-42.680793,-10.446793
2.275662,-41.898046,-9.337481
2.275662,-41.127877,-8.228169
2.275662,-40.365080,-7.118858
2.275662,-39.608461,-6.009546
2.275662,-38.860830,-4.900234
2.275662,-38.129010,-3.790923
2.275662,-37.423832,-2.681611
2.275662,-36.760134,-1.572299
2.275662,-36.156766,-0.462988
2.275662,-35.636584,0.646324
2.275662,-35.226455,1.755636
2.275662,-34.985183,5.083571
2.275662,-34.957254,2.864947
2.275662,-34.863866,3.974259
3.337221,-58.087462,-10.878114
3.337221,-57.984635,-9.850981
3.337221,-57.724456,-11.905247
3.337221,-57.466531,-8.823847
3.337221,-56.845290,-12.932381
3.337221,-56.583931,-7.796714
3.337221,-55.399860,-13.959514
3.337221,-55.387844,-6.769581
3.337221,-53.929505,-5.742447
3.337221,-53.338293,-14.986647
3.337221,-52.260376,-4.715314
3.337221,-50.432145,-3.688181
3.337221,-48.496726,-2.661047
3.337221,-46.506263,-1.633914
3.337221,-44.513122,-0.606781
3.337221,-42.569899,0.420353
3.337221,-40.729417,1.447486
3.337221,-39.044722,2.474619
3.337221,-37.569090,3.501753
3.337221,-36.356024,4.528886
3.434491,-46.297506,-15.167971
3.434491,-45.374195,-14.081269
3.434491,-44.513053,-12.994566
3.434491,-43.694001,-11.907863
3.434491,-42.900651,-10.821160
3.434491,-42.120307,-9.734458
3.434491,-41.343964,-8.647755
3.434491,-40.566311,-7.561052
3.434491,-39.785728,-6.474349
3.434491,-39.004285,-5.387647
3.434491,-38.227748,-4.300944
3.434491,-37.465572,-3.214241
3.434491,-36.730905,-2.127538
3.434491,-36.040586,-1.040836
3.434491,-35.415148,0.045867
3.434491,-34.878813,1.132570
3.434491,-34.459498,2.219272
3.434491,-34.238206,5.479381
3.434491,-34.188810,3.305975
3.434491,-34.102049,4.392678
4.503711,-54.818351,-10.940471
4.503711,-54.763425,-9.895596
4.503711,-54.417303,-11.985347
4.503711,-54.302949,-8.850721
4.503711,-53.510101,-13.030222
4.503711,-53.487589,-7.805845
4.503711,-52.368256,-6.760970
4.503711,-52.046805,-14.075097
4.503711,-50.996102,-5.716095
4.503711,-49.422520,-4.671219
4.503711,-47.699149,-3.626344
4.503711,-45.877870,-2.581469
4.503711,-44.010804,-1.536593
4.503711,-42.150318,-0.491718
4.503711,-40.349021,0.553157
4.503711,-38.659763,1.598033
4.503711,-37.135639,2.642908
4.503711,-35.829985,3.687783
4.503711,-34.796380,4.732659
4.503711,-34.088647,5.777534
4.593319,-45.111940,-14.274432
4.593319,-44.287665,-13.209846
4.593319,-43.495346,-12.145261
4.593319,-42.719763,-11.080675
4.593319,-41.949097,-10.016090
4.593319,-41.174930,-8.951504
4.593319,-40.392241,-7.886919
4.593319,-39.599412,-6.822333
4.593319,-38.798227,-5.757748
4.593319,-37.993867,-4.693162
4.593319,-37.194916,-3.628577
4.593319,-36.413357,-2.563991
4.593319,-35.664575,-1.499406
4.593319,-34.967353,-0.434820
4.593319,-34.343877,0.629765
4.593319,-33.819732,1.694351
4.593319,-33.423904,2.758936
4.593319,-33.347187,5.952693
4.593319,-33.188779,3.823522
4.593319,-33.150144,4.888107
5.670201,-52.074776,-10.122759
5.670201,-52.024229,-11.168369
5.670201,-51.734109,-9.077148
5.670201,-51.534779,-12.213979
5.670201,-51.050159,-8.031538
5.670201,-50.558984,-13.259589
5.670201,-50.071099,-6.985928
5.670201,-48.845347,-5.940318
5.670201,-47.421565,-4.894708
5.670201,-45.848658,-3.849098
5.670201,-44.175772,-2.803488
5.670201,-42.452301,-1.757878
5.670201,-40.727877,-0.712268
5.670201,-39.052381,0.333342
5.670201,-37.475932,1.378952
5.670201,-36.048898,2.424562
5.670201,-34.821885,3.470172
5.670201,-33.845746,4.515783
5.670201,-33.171576,5.561393
5.670201,-32.850714,6.607003
5.752147,-43.778264,-13.401865
5.752147,-43.017325,-12.363068
5.752147,-42.265600,-11.324271
5.752147,-41.512269,-10.285473
5.752147,-40.749595,-9.246676
5.752147,-39.972923,-8.207878
5.752147,-39.180682,-7.169081
5.752147,-38.374382,-6.130284
5.752147,-37.558617,-5.091486
5.752147,-36.741063,-4.052689
5.752147,-35.932481,-3.013892
5.752147,-35.146711,-1.975094
5.752147,-34.400678,-0.936297
5.752147,-33.714390,0.102500
5.752147,-33.110938,1.141298
5.752147,-32.616493,2.180095
5.752147,-32.360149,6.335284
5.752147,-32.260312,3.218892
5.752147,-32.095177,5.296487
5.752147,-32.074733,4.257690
6.275388,-47.904846,-12.129944
6.275388,-47.873990,-13.326807
6.275388,-47.624099,-10.933081
6.275388,-47.494978,-14.523671
6.275388,-47.068505,-9.736217
6.275388,-46.275020,-8.539354
6.275388,-45.280804,-7.342490
6.275388,-44.123216,-6.145627
6.275388,-42.839818,-4.948764
6.275388,-41.468374,-3.751900
6.275388,-40.046847,-2.555037
6.275388,-38.613405,-1.358174
6.275388,-37.206414,-0.161310
6.305272,-40.925350,-14.405563
6.305272,-40.232720,-13.240366
6.305272,-39.525326,-12.075169
6.305272,-38.798851,-10.909972
6.305272,-38.051334,-9.744776
6.305272,-37.283167,-8.579579
6.305272,-36.497095,-7.414382
6.305272,-35.698215,-6.249185
6.305272,-34.893980,-5.083988
6.305272,-34.094195,-3.918791
6.305272,-33.311017,-2.753594
6.305272,-32.558959,-1.588397
6.305272,-31.854886,-0.423201
6.798629,-46.387624,-13.047853
6.798629,-46.343983,-11.902913
6.798629,-46.140646,-14.192794
6.798629,-46.039639,-10.757972
6.798629,-45.504678,-9.613032
6.798629,-44.769356,-8.468091
6.798629,-43.864097,-7.323150
6.798629,-42.819493,-6.178210
6.798629,-41.666305,-5.033269
6.798629,-40.435465,-3.888328
6.798629,-39.158070,-2.743388
6.798629,-37.865388,-1.598447
6.798629,-36.588856,-0.453507
6.825076,-39.538907,-13.904033
6.825076,-38.873873,-12.787080
6.825076,-38.190124,-11.670127
6.825076,-37.485233,-10.553173
6.825076,-36.758756,-9.436220
6.825076,-36.012240,-8.319267
6.825076,-35.249217,-7.202314
6.825076,-34.475207,-6.085361
6.825076,-33.697715,-4.968408
6.825076,-32.926237,-3.851454
6.825076,-32.172254,-2.734501
6.825076,-31.449233,-1.617548
6.825076,-30.772629,-0.500595
6.836691,-37.032588,0.788989
6.836691,-35.653517,1.818104
6.836691,-34.432798,2.847218
6.836691,-33.416118,3.876333
6.836691,-32.649391,4.905448
6.836691,-32.178761,5.934562
6.836691,-32.050600,6.963677
6.910975,-32.428116,0.473063
6.910975,-31.853182,1.480613
6.910975,-31.392419,2.488164
6.910975,-31.298861,6.518366
6.910975,-31.074171,3.495715
6.910975,-30.992228,5.510816
6.910975,-30.929508,4.503265
7.321869,-45.176131,-13.048860
7.321869,-45.128899,-11.963854
7.321869,-44.979587,-14.133865
7.321869,-44.861545,-10.878849
7.321869,-44.397858,-9.793843
7.321869,-43.761764,-8.708837
7.321869,-42.977323,-7.623832
7.321869,-42.068732,-6.538826
7.321869,-41.060327,-5.453821
7.321869,-39.976575,-4.368815
7.321869,-38.842084,-3.283810
7.321869,-37.681594,-2.198804
7.321869,-36.519984,-1.113799
7.321869,-35.382268,-0.028793
7.344880,-38.269126,-13.683800
7.344880,-37.635689,-12.616199
7.344880,-36.982671,-11.548599
7.344880,-36.308710,-10.480998
7.344880,-35.614103,-9.413398
7.344880,-34.900803,-8.345797
7.344880,-34.172425,-7.278197
7.344880,-33.434239,-6.210596
7.344880,-32.693176,-5.142996
7.344880,-31.957825,-4.075395
7.344880,-31.238432,-3.007795
7.344880,-30.546904,-1.940194
7.344880,-29.896805,-0.872593
7.344880,-29.303358,0.195007
7.845110,-44.213816,-13.328920
7.845110,-44.211801,-12.305250
7.845110,-44.020647,-11.281579
7.845110,-44.008374,-14.352590
7.845110,-43.658776,-10.257909
7.845110,-43.144722,-9.234239
7.845110,-42.497124,-8.210569
7.845110,-41.734730,-7.186899
7.845110,-40.876396,-6.163229
7.845110,-39.941086,-5.139559
7.845110,-38.947870,-4.115889
7.845110,-37.915928,-3.092219
7.845110,-36.864547,-2.068549
7.845110,-35.813121,-1.044879
7.845110,-34.781154,-0.021209
7.864684,-37.171987,-13.765970
7.864684,-36.574898,-12.744800
7.864684,-35.959102,-11.723629
7.864684,-35.323665,-10.702458
7.864684,-34.669041,-9.681288
7.864684,-33.997074,-8.660117
7.864684,-33.310995,-7.638947
7.864684,-32.615422,-6.617776
7.864684,-31.916365,-5.596605
7.864684,-31.221218,-4.575435
7.864684,-30.538767,-3.554264
7.864684,-29.879183,-2.533093
7.864684,-29.254029,-1.511923
7.864684,-28.676253,-0.490752
8.003181,-35.864445,0.862961
8.003181,-34.626267,1.860347
8.003181,-33.530853,2.857733
8.003181,-32.617377,3.855119
8.003181,-31.925215,4.852506
8.003181,-31.493942,5.849892
8.003181,-31.363338,6.847278
8.069803,-31.218016,0.618330
8.069803,-30.669920,1.589328
8.069803,-30.234525,2.560325
8.069803,-30.180814,6.444315
8.069803,-29.938108,3.531322
8.069803,-29.879091,5.473317
8.069803,-29.809302,4.502320
8.368351,-43.517901,-12.905901
8.368351,-43.442861,-13.873593
8.368351,-43.426384,-11.938209
8.368351,-43.187123,-14.841285
8.368351,-43.182540,-10.970517
8.368351,-42.800683,-10.002825
8.368351,-42.295213,-9.035133
8.368351,-41.680617,-8.067441
8.368351,-40.971467,-7.099748
8.368351,-40.182423,-6.132056
8.368351,-39.328229,-5.164364
8.368351,-38.423717,-4.196672
8.368351,-37.483804,-3.228980
8.368351,-36.523493,-2.261288
8.368351,-35.557873,-1.293596
8.368351,-34.602121,-0.325904
8.384488,-36.285406,-14.154480
8.384488,-35.727165,-13.172546
8.384488,-35.152024,-12.190613
8.384488,-34.559027,-11.208679
8.384488,-33.948403,-10.226746
8.384488,-33.321569,-9.244812
8.384488,-32.681126,-8.262879
8.384488,-32.030867,-7.280945
8.384488,-31.375767,-6.299012
8.384488,-30.721991,-5.317078
8.384488,-30.076890,-4.335145
8.384488,-29.449002,-3.353211
8.384488,-28.848050,-2.371278
8.384488,-28.284948,-1.389345
8.384488,-27.771793,-0.407411
8.891592,-42.983172,-12.808844
8.891592,-42.961961,-13.732190
8.891592,-42.864261,-11.885497
8.891592,-42.789447,-14.655537
8.891592,-42.616485,-10.962151
8.891592,-42.454517,-15.578883
8.891592,-42.251168,-10.038804
8.891592,-41.779708,-9.115457
8.891592,-41.213574,-8.192111
8.891592,-40.564305,-7.268764
8.891592,-39.843512,-6.345418
8.891592,-39.062880,-5.422071
8.891592,-38.234161,-4.498725
8.891592,-37.369181,-3.575378
8.891592,-36.479838,-2.652032
8.891592,-35.578100,-1.728685
8.891592,-34.676005,-0.805339
8.891592,-33.785666,0.118008
8.904292,-35.627622,-14.836093
8.904292,-35.106907,-13.882217
8.904292,-34.571745,-12.928342
8.904292,-34.020837,-11.974467
8.904292,-33.453937,-11.020592
8.904292,-32.871860,-10.066717
8.904292,-32.276476,-9.112842
8.904292,-31.670711,-8.158967
8.904292,-31.058550,-7.205092
8.904292,-30.445035,-6.251216
8.904292,-29.836263,-5.297341
8.904292,-29.239389,-4.343466
8.904292,-28.662626,-3.389591
8.904292,-28.115242,-2.435716
8.904292,-27.607562,-1.481841
8.904292,-27.150971,-0.527966
9.169671,-35.360080,0.576195
9.169671,-34.210832,1.530312
9.169671,-33.173056,2.484429
9.169671,-32.278863,3.438547
9.169671,-31.560533,4.392664
9.169671,-31.050516,5.346781
9.169671,-30.781429,6.300898
9.228632,-30.159887,0.513632
9.228632,-29.630434,1.444426
9.228632,-29.205688,2.375221
9.228632,-29.051658,6.098398
9.228632,-28.909052,3.306015
9.228632,-28.803665,5.167603
9.228632,-28.765919,4.236809
9.414832,-42.613971,-12.947745
9.414832,-42.606314,-13.843540
9.414832,-42.497319,-12.051950
9.414832,-42.465161,-14.739336
9.414832,-42.265609,-11.156155
9.414832,-42.181387,-15.635131
9.414832,-41.928154,-10.260359
9.414832,-41.745931,-16.530926
9.414832,-41.494333,-9.364564
9.414832,-40.973585,-8.468769
9.414832,-40.375415,-7.572974
9.414832,-39.709389,-6.677178
9.414832,-38.985137,-5.781383
9.414832,-38.212354,-4.885588
9.414832,-37.400795,-3.989793
9.414832,-36.560281,-3.093997
9.414832,-35.700694,-2.198202
9.414832,-34.831982,-1.302407
9.414832,-33.964153,-0.406611
9.424096,-35.201218,-15.780404
9.424096,-34.712292,-14.840228
9.424096,-34.212146,-13.900053
9.424096,-33.698875,-12.959877
9.424096,-33.171568,-12.019702
9.424096,-32.630316,-11.079527
9.424096,-32.076205,-10.139351
9.424096,-31.511319,-9.199176
9.424096,-30.938739,-8.259000
9.424096,-30.362544,-7.318825
9.424096,-29.787811,-6.378649
9.424096,-29.220614,-5.438474
9.424096,-28.668024,-4.498299
9.424096,-28.138110,-3.558123
9.424096,-27.639940,-2.617948
9.424096,-27.183578,-1.677772
9.424096,-26.780084,-0.737597
9.424096,-26.441519,0.202578
9.938073,-42.379456,-13.207280
9.938073,-42.370451,-14.095738
9.938073,-42.272250,-12.318822
9.938073,-42.237277,-14.984196
9.938073,-42.056849,-11.430364
9.938073,-41.972043,-15.872654
9.938073,-41.741331,-10.541906
9.938073,-41.566913,-16.761112
9.938073,-41.333835,-9.653448
9.938073,-41.014117,-17.649569
9.938073,-40.842561,-8.764990
9.938073,-40.275770,-7.876532
9.938073,-39.641786,-6.988074
9.938073,-38.948992,-6.099616
9.938073,-38.205834,-5.211158
9.938073,-37.420817,-4.322700
9.938073,-36.602509,-3.434242
9.938073,-35.759538,-2.545784
9.938073,-34.900595,-1.657326
9.938073,-34.034431,-0.768868
9.943900,-35.001346,-16.939837
9.943900,-34.533840,-15.997151
9.943900,-34.059596,-15.054465
9.943900,-33.575822,-14.111780
9.943900,-33.080734,-13.169094
9.943900,-32.573558,-12.226409
9.943900,-32.054525,-11.283723
9.943900,-31.524878,-10.341038
9.943900,-30.986866,-9.398352
9.943900,-30.443746,-8.455667
9.943900,-29.899785,-7.512981
9.943900,-29.360257,-6.570295
9.943900,-28.831443,-5.627610
9.943900,-28.320635,-4.684924
9.943900,-27.836132,-3.742239
9.943900,-27.387240,-2.799553
9.943900,-26.984275,-1.856868
9.943900,-26.638560,-0.914182
9.943900,-26.362428,0.028503
10.336161,-34.293595,0.880177
10.336161,-33.279253,1.784348
10.336161,-32.364664,2.688520
10.336161,-31.575385,3.592691
10.336161,-30.937112,4.496862
10.336161,-30.475676,5.401034
10.387460,-28.783444,1.052173
10.387460,-28.355604,1.941840
10.387460,-28.040035,2.831507
10.387460,-27.993822,5.500509
10.387460,-27.858595,3.721174
10.387460,-27.834799,4.610841
10.461314,-42.244060,-13.459286
10.461314,-42.237795,-14.361668
10.461314,-42.136740,-12.556903
10.461314,-42.110663,-15.264051
10.461314,-41.923177,-11.654520
10.461314,-41.855453,-16.166433
10.461314,-41.610782,-10.752138
10.461314,-41.465015,-17.068816
10.461314,-41.207027,-9.849755
10.461314,-40.932265,-17.971199
10.461314,-40.719454,-8.947373
10.461314,-40.250185,-18.873581
10.461314,-40.155666,-8.044990
10.461314,-39.523333,-7.142608
10.461314,-38.830191,-6.240225
10.461314,-38.084038,-5.337842
10.461314,-37.292740,-4.435460
10.461314,-36.464228,-3.533077
10.461314,-35.606496,-2.630695
10.461314,-34.727605,-1.728312
10.463704,-35.024924,-18.249644
10.463704,-34.563720,-17.288239
10.463704,-34.102273,-16.326833
10.463704,-33.636557,-15.365427
10.463704,-33.163635,-14.404021
10.463704,-32.681660,-13.442615
10.463704,-32.189878,-12.481210
10.463704,-31.688624,-11.519804
10.463704,-31.179325,-10.558398
10.463704,-30.664497,-9.596992
10.463704,-30.147748,-8.635586
10.463704,-29.633777,-7.674181
10.463704,-29.128372,-6.712775
10.463704,-28.638415,-5.751369
10.463704,-28.171875,-4.789963
10.463704,-27.737813,-3.828557
10.463704,-27.346383,-2.867151
10.463704,-27.008827,-1.905746
10.463704,-26.737477,-0.944340
10.463704,-26.545760,0.017066
10.983508,-35.275874,-19.627910
10.983508,-34.801477,-18.633947
10.983508,-34.336210,-17.639984
10.983508,-33.874384,-16.646020
10.983508,-33.411558,-15.652057
10.983508,-32.944534,-14.658094
10.983508,-32.471364,-13.664131
10.983508,-31.991344,-12.670167
10.983508,-31.505015,-11.676204
10.983508,-31.014166,-10.682241
10.983508,-30.521832,-9.688278
10.983508,-30.032294,-8.694314
10.983508,-29.551078,-7.700351
10.983508,-29.084958,-6.706388
10.983508,-28.641953,-5.712425
10.983508,-28.231328,-4.718462
10.983508,-27.863596,-3.724498
10.983508,-27.550513,-2.730535
10.983508,-27.305083,-1.736572
10.983508,-27.141557,-0.742609
10.984555,-42.189251,-14.514646
10.984555,-42.173232,-13.579030
10.984555,-42.083927,-15.450262
10.984555,-42.042817,-12.643414
10.984555,-41.850390,-16.385878
10.984555,-41.805025,-11.707798
10.984555,-41.481845,-17.321494
10.984555,-41.466952,-10.772182
10.984555,-41.035770,-9.836566
10.984555,-40.971572,-18.257110
10.984555,-40.518726,-8.900950
10.984555,-40.312926,-19.192726
10.984555,-39.923142,-7.965335
10.984555,-39.499340,-20.128342
10.984555,-39.256413,-7.029719
10.984555,-38.526013,-6.094103
10.984555,-37.739490,-5.158487
10.984555,-36.904465,-4.222871
10.984555,-36.028637,-3.287255
10.984555,-35.119780,-2.351639
11.503312,-35.760996,-20.975545
11.503312,-35.251793,-19.940456
11.503312,-34.764461,-18.905367
11.503312,-34.291238,-17.870278
11.503312,-33.825829,-16.835188
11.503312,-33.363405,-15.800099
11.503312,-32.900602,-14.765010
11.503312,-32.435522,-13.729921
11.503312,-31.967731,-12.694831
11.503312,-31.498262,-11.659742
11.503312,-31.029615,-10.624653
11.503312,-30.565752,-9.589563
11.503312,-30.112103,-8.554474
11.503312,-29.675563,-7.519385
11.503312,-29.264492,-6.484296
11.503312,-28.888718,-5.449206
11.503312,-28.559530,-4.414117
11.503312,-28.289686,-3.379028
11.503312,-28.093410,-2.343939
11.503312,-27.986389,-1.308849
11.507795,-42.190517,-14.447825
11.507795,-42.136809,-15.430399
11.507795,-42.121034,-13.465251
11.507795,-41.953289,-16.412974
11.507795,-41.935073,-12.482677
11.507795,-41.639440,-11.500103
11.507795,-41.633425,-17.395548
11.507795,-41.241029,-10.517529
11.507795,-41.170779,-18.378122
11.507795,-40.746831,-9.534955
11.507795,-40.559005,-19.360696
11.507795,-40.163923,-8.552381
11.507795,-39.791846,-20.343270
11.507795,-39.499477,-7.569807
11.507795,-38.863139,-21.325844
11.507795,-38.760756,-6.587233
11.507795,-37.955113,-5.604659
11.507795,-37.089995,-4.622085
11.507795,-36.172938,-3.639511
11.507795,-35.211571,-2.656937
11.546288,-28.160192,0.442015
12.023116,-36.474176,-22.176292
12.023116,-35.912578,-21.100194
12.023116,-35.388222,-20.024097
12.023116,-34.891120,-18.947999
12.023116,-34.412994,-17.871902
12.023116,-33.947282,-16.795805
12.023116,-33.489130,-15.719707
12.023116,-33.035398,-14.643610
12.023116,-32.584658,-13.567512
12.023116,-32.137194,-12.491415
12.023116,-31.695001,-11.415317
12.023116,-31.261787,-10.339220
12.023116,-30.842971,-9.263122
12.023116,-30.445685,-8.187025
12.023116,-30.078772,-7.110928
12.023116,-29.752788,-6.034830
12.023116,-29.479999,-4.958733
12.023116,-29.274387,-3.882635
12.023116,-29.151641,-2.806538
12.023116,-29.129166,-1.730440
12.031036,-42.211957,-15.130802
12.031036,-42.177632,-14.097390
12.031036,-42.116284,-16.164215
12.031036,-42.019488,-13.063977
12.031036,-41.884543,-17.197628
12.031036,-41.743818,-12.030564
12.031036,-41.510779,-18.231041
12.031036,-41.357025,-10.997151
