-14.251899,-36.135116,-18.679276
-14.251899,-35.656433,-17.574915
-14.251899,-35.194876,-16.470554
-14.251899,-34.746249,-15.366193
-14.251899,-34.308288,-14.261832
-14.251899,-33.880664,-13.157470
-14.251899,-33.464980,-12.053109
-14.251899,-33.064777,-10.948748
-14.251899,-32.685524,-9.844387
-14.251899,-32.334629,-8.740026
-14.251899,-32.021431,-7.635665
-14.251899,-31.757202,-6.531304
-14.251899,-31.555151,-5.426943
-14.251899,-31.483141,-2.113860
-14.251899,-31.430418,-4.322582
-14.251899,-31.400079,-3.218221
-13.863944,-27.561959,0.354925
-13.611194,-43.298861,-15.130802
-13.611194,-43.263908,-14.097390
-13.611194,-43.201437,-16.164215
-13.611194,-43.102869,-13.063977
-13.611194,-42.965454,-17.197628
-13.611194,-42.822153,-12.030564
-13.611194,-42.584849,-18.231041
-13.611194,-42.428281,-10.997151
-13.611194,-42.053670,-19.264454
-13.611194,-41.927889,-9.963738
-13.611194,-41.366079,-20.297867
-13.611194,-41.327726,-8.930325
-13.611194,-40.634655,-7.896912
-13.611194,-40.516354,-21.331280
-13.611194,-39.855655,-6.863499
-13.611194,-39.498885,-22.364693
-13.611194,-38.997818,-5.830086
-13.611194,-38.068349,-4.796673
-13.611194,-37.074567,-3.763260
-13.611194,-36.023908,-2.729847
-13.601280,-37.456062,-22.176292
-13.601280,-36.884186,-21.100194
-13.601280,-36.350233,-20.024097
-13.601280,-35.844031,-18.947999
-13.601280,-35.357155,-17.871902
-13.601280,-34.882919,-16.795805
-13.601280,-34.416381,-15.719707
-13.601280,-33.954345,-14.643610
-13.601280,-33.495355,-13.567512
-13.601280,-33.039701,-12.491415
-13.601280,-32.589415,-11.415317
-13.601280,-32.148272,-10.339220
-13.601280,-31.721790,-9.263122
-13.601280,-31.317233,-8.187025
-13.601280,-30.943604,-7.110928
-13.601280,-30.611653,-6.034830
-13.601280,-30.333873,-4.958733
-13.601280,-30.124497,-3.882635
-13.601280,-29.999504,-2.806538
-13.601280,-29.976618,-1.730440
-12.956273,-43.277029,-14.447825
-12.956273,-43.222338,-15.430399
-12.956273,-43.206274,-13.465251
-12.956273,-43.035458,-16.412974
-12.956273,-43.016909,-12.482677
-12.956273,-42.715865,-11.500103
-12.956273,-42.709740,-17.395548
-12.956273,-42.310163,-10.517529
-12.956273,-42.238627,-18.378122
-12.956273,-41.806919,-9.534955
-12.956273,-41.615655,-19.360696
-12.956273,-41.213342,-8.552381
-12.956273,-40.834455,-20.343270
-12.956273,-40.536735,-7.569807
-12.956273,-39.888750,-21.325844
-12.956273,-39.784493,-6.587233
-12.956273,-38.964105,-5.604659
-12.956273,-38.083153,-4.622085
-12.956273,-37.149311,-3.639511
-12.956273,-36.170348,-2.656937
-12.950661,-36.729829,-20.975545
-12.950661,-36.211307,-19.940456
-12.950661,-35.715055,-18.905367
-12.950661,-35.233171,-17.870278
-12.950661,-34.759243,-16.835188
-12.950661,-34.288356,-15.800099
-12.950661,-33.817082,-14.765010
-12.950661,-33.343489,-13.729921
-12.950661,-32.867136,-12.694831
-12.950661,-32.389075,-11.659742
-12.950661,-31.911850,-10.624653
-12.950661,-31.439497,-9.589563
-12.950661,-30.977545,-8.554474
-12.950661,-30.533015,-7.519385
-12.950661,-30.114421,-6.484296
-12.950661,-29.731769,-5.449206
-12.950661,-29.396556,-4.414117
-12.950661,-29.121773,-3.379028
-12.950661,-28.921905,-2.343939
-12.950661,-28.812925,-1.308849
-12.705116,-28.136245,0.478769
-12.301353,-43.275739,-14.514646
-12.301353,-43.259428,-13.579030
-12.301353,-43.168487,-15.450262
-12.301353,-43.126625,-12.643414
-12.301353,-42.930676,-16.385878
-12.301353,-42.884480,-11.707798
-12.301353,-42.555385,-17.321494
-12.301353,-42.540220,-10.772182
-12.301353,-42.101147,-9.836566
-12.301353,-42.035773,-18.257110
-12.301353,-41.574639,-8.900950
-12.301353,-41.365073,-19.192726
-12.301353,-40.968154,-7.965335
-12.301353,-40.536595,-20.128342
-12.301353,-40.289222,-7.029719
-12.301353,-39.545454,-6.094103
-12.301353,-38.744535,-5.158487
-12.301353,-37.894227,-4.222871
-12.301353,-37.002369,-3.287255
-12.301353,-36.076877,-2.351639
-12.300042,-36.235828,-19.627910
-12.300042,-35.752748,-18.633947
-12.300042,-35.278965,-17.639984
-12.300042,-34.808687,-16.646020
-12.300042,-34.337389,-15.652057
-12.300042,-33.861818,-14.658094
-12.300042,-33.379988,-13.664131
-12.300042,-32.891181,-12.670167
-12.300042,-32.395951,-11.676204
-12.300042,-31.896119,-10.682241
-12.300042,-31.394773,-9.688278
-12.300042,-30.896275,-8.694314
-12.300042,-30.406252,-7.700351
-12.300042,-29.931601,-6.706388
-12.300042,-29.480487,-5.712425
-12.300042,-29.062347,-4.718462
-12.300042,-28.687884,-3.724498
-12.300042,-28.369071,-2.730535
-12.300042,-28.119149,-1.736572
-12.300042,-27.952630,-0.742609
-11.649424,-35.980285,-18.249644
-11.649424,-35.510639,-17.288239
-11.649424,-35.040747,-16.326833
-11.649424,-34.566507,-15.365427
-11.649424,-34.084929,-14.404021
-11.649424,-33.594133,-13.442615
-11.649424,-33.093350,-12.481210
-11.649424,-32.582921,-11.519804
-11.649424,-32.064300,-10.558398
-11.649424,-31.540049,-9.596992
-11.649424,-31.013843,-8.635586
-11.649424,-30.490464,-7.674181
-11.649424,-29.975810,-6.712775
-11.649424,-29.476884,-5.751369
-11.649424,-29.001805,-4.789963
-11.649424,-28.559800,-3.828557
-11.649424,-28.161205,-2.867151
-11.649424,-27.817470,-1.905746
-11.649424,-27.541155,-0.944340
-11.649424,-27.345928,0.017066
-11.646432,-43.331552,-13.459286
-11.646432,-43.325171,-14.361668
-11.646432,-43.222267,-12.556903
-11.646432,-43.195713,-15.264051
-11.646432,-43.004796,-11.654520
-11.646432,-42.935832,-16.166433
-11.646432,-42.686682,-10.752138
-11.646432,-42.538248,-17.068816
-11.646432,-42.275538,-9.849755
-11.646432,-41.995747,-17.971199
-11.646432,-41.779041,-8.947373
-11.646432,-41.301183,-18.873581
-11.646432,-41.204934,-8.044990
-11.646432,-40.561028,-7.142608
-11.646432,-39.855199,-6.240225
-11.646432,-39.095389,-5.337842
-11.646432,-38.289609,-4.435460
-11.646432,-37.445932,-3.533077
-11.646432,-36.572502,-2.630695
-11.646432,-35.677525,-1.728312
-11.546288,-28.989909,0.442015
-10.998805,-35.956275,-16.939837
-10.998805,-35.480213,-15.997151
-10.998805,-34.997289,-15.054465
-10.998805,-34.504661,-14.111780
-10.998805,-34.000511,-13.169094
-10.998805,-33.484052,-12.226409
-10.998805,-32.955519,-11.283723
-10.998805,-32.416178,-10.341038
-10.998805,-31.868319,-9.398352
-10.998805,-31.315259,-8.455667
-10.998805,-30.761342,-7.512981
-10.998805,-30.211938,-6.570295
-10.998805,-29.673446,-5.627610
-10.998805,-29.153289,-4.684924
-10.998805,-28.659918,-3.742239
-10.998805,-28.202810,-2.799553
-10.998805,-27.792470,-1.856868
-10.998805,-27.440427,-0.914182
-10.998805,-27.159240,0.028503
-10.991512,-43.469426,-13.207280
-10.991512,-43.460255,-14.095738
-10.991512,-43.360258,-12.318822
-10.991512,-43.324645,-14.984196
-10.991512,-43.140914,-11.430364
-10.991512,-43.054555,-15.872654
-10.991512,-42.819621,-10.541906
-10.991512,-42.642011,-16.761112
-10.991512,-42.404667,-9.653448
-10.991512,-42.079097,-17.649569
-10.991512,-41.904401,-8.764990
-10.991512,-41.327236,-7.876532
-10.991512,-40.681649,-6.988074
-10.991512,-39.976175,-6.099616
-10.991512,-39.219414,-5.211158
-10.991512,-38.420029,-4.322700
-10.991512,-37.586744,-3.434242
-10.991512,-36.728345,-2.545784
-10.991512,-35.853681,-1.657326
-10.991512,-34.971663,-0.768868
-10.348186,-36.159806,-15.780404
-10.348186,-35.661931,-14.840228
-10.348186,-35.152631,-13.900053
-10.348186,-34.629965,-12.959877
-10.348186,-34.093008,-12.019702
-10.348186,-33.541849,-11.079527
-10.348186,-32.977596,-10.139351
-10.348186,-32.402371,-9.199176
-10.348186,-31.819311,-8.259000
-10.348186,-31.232570,-7.318825
-10.348186,-30.647318,-6.378649
-10.348186,-30.069739,-5.438474
-10.348186,-29.507035,-4.498299
-10.348186,-28.967423,-3.558123
-10.348186,-28.460135,-2.617948
-10.348186,-27.995420,-1.677772
-10.348186,-27.584541,-0.737597
-10.348186,-27.239779,0.202578
-10.336591,-43.708233,-12.947745
-10.336591,-43.700436,-13.843540
-10.336591,-43.589446,-12.051950
-10.336591,-43.556699,-14.739336
-10.336591,-43.353495,-11.156155
-10.336591,-43.267731,-15.635131
-10.336591,-43.009864,-10.260359
-10.336591,-42.824305,-16.530926
-10.336591,-42.568102,-9.364564
-10.336591,-42.037823,-8.468769
-10.336591,-41.428705,-7.572974
-10.336591,-40.750489,-6.677178
-10.336591,-40.012981,-5.781383
-10.336591,-39.226054,-4.885588
-10.336591,-38.399641,-3.989793
-10.336591,-37.543743,-3.093997
-10.336591,-36.668424,-2.198202
-10.336591,-35.783811,-1.302407
-10.336591,-34.900099,-0.406611
-9.697567,-36.594014,-14.836093
-9.697567,-36.063768,-13.882217
-9.697567,-35.518812,-12.928342
-9.697567,-34.957820,-11.974467
-9.697567,-34.380545,-11.020592
-9.697567,-33.787814,-10.066717
-9.697567,-33.181532,-9.112842
-9.697567,-32.564680,-8.158967
-9.697567,-31.941315,-7.205092
-9.697567,-31.316571,-6.251216
-9.697567,-30.696657,-5.297341
-9.697567,-30.088858,-4.343466
-9.697567,-29.501539,-3.389591
-9.697567,-28.944136,-2.435716
-9.697567,-28.427165,-1.481841
-9.697567,-27.962217,-0.527966
-9.681670,-44.084191,-12.808844
-9.681670,-44.062592,-13.732190
-9.681670,-43.963104,-11.885497
-9.681670,-43.886921,-14.655537
-9.681670,-43.710793,-10.962151
-9.681670,-43.545861,-15.578883
-9.681670,-43.338790,-10.038804
-9.681670,-42.858701,-9.115457
-9.681670,-42.282204,-8.192111
-9.681670,-41.621052,-7.268764
-9.681670,-40.887067,-6.345418
-9.681670,-40.092147,-5.422071
-9.681670,-39.248260,-4.498725
-9.681670,-38.367449,-3.575378
-9.681670,-37.461828,-2.652032
-9.681670,-36.543585,-1.728685
-9.681670,-35.624980,-0.805339
-9.681670,-34.718345,0.118008
-9.046948,-37.263837,-14.154480
-9.046948,-36.695378,-13.172546
-9.046948,-36.109711,-12.190613
-9.046948,-35.505861,-11.208679
-9.046948,-34.884061,-10.226746
-9.046948,-34.245753,-9.244812
-9.046948,-33.593589,-8.262879
-9.046948,-32.931428,-7.280945
-9.046948,-32.264338,-6.299012
-9.046948,-31.598596,-5.317078
-9.046948,-30.941688,-4.335145
-9.046948,-30.302307,-3.353211
-9.046948,-29.690357,-2.371278
-9.046948,-29.116948,-1.389345
-9.046948,-28.594401,-0.407411
-9.026750,-44.628707,-12.905901
-9.026750,-44.552294,-13.873593
-9.026750,-44.535516,-11.938209
-9.026750,-44.291875,-14.841285
-9.026750,-44.287209,-10.970517
-9.026750,-43.898362,-10.002825
-9.026750,-43.383641,-9.035133
-9.026750,-42.757796,-8.067441
-9.026750,-42.035667,-7.099748
-9.026750,-41.232181,-6.132056
-9.026750,-40.362353,-5.164364
-9.026750,-39.441286,-4.196672
-9.026750,-38.484169,-3.228980
-9.026750,-37.506282,-2.261288
-9.026750,-36.522988,-1.293596
-9.026750,-35.549743,-0.325904
-8.396329,-38.166645,-13.765970
-8.396329,-37.558628,-12.744800
-8.396329,-36.931561,-11.723629
-8.396329,-36.284494,-10.702458
-8.396329,-35.617889,-9.681288
-8.396329,-34.933623,-8.660117
-8.396329,-34.234986,-7.638947
-8.396329,-33.526682,-6.617776
-8.396329,-32.814830,-5.596605
-8.396329,-32.106960,-4.575435
-8.396329,-31.412018,-3.554264
-8.396329,-30.740362,-2.533093
-8.396329,-30.103766,-1.511923
-8.396329,-29.515415,-0.490752
-8.371829,-45.337360,-13.328920
-8.371829,-45.335308,-12.305250
-8.371829,-45.140655,-11.281579
-8.371829,-45.128158,-14.352590
-8.371829,-44.772161,-10.257909
-8.371829,-44.248698,-9.234239
-8.371829,-43.589247,-8.210569
-8.371829,-42.812900,-7.186899
-8.371829,-41.938856,-6.163229
-8.371829,-40.986427,-5.139559
-8.371829,-39.975032,-4.115889
-8.371829,-38.924202,-3.092219
-8.371829,-37.853578,-2.068549
-8.371829,-36.782908,-1.044879
-8.371829,-35.732053,-0.021209
-8.069803,-32.103699,0.618330
-8.069803,-31.545572,1.589328
-8.069803,-31.102208,2.560325
-8.069803,-31.047514,6.444315
-8.069803,-30.800366,3.531322
-8.069803,-30.740268,5.473317
-8.069803,-30.669202,4.502320
-8.003181,-36.835171,0.862961
-8.003181,-35.574331,1.860347
-8.003181,-34.458868,2.857733
-8.003181,-33.528673,3.855119
-8.003181,-32.823842,4.852506
-8.003181,-32.384676,5.849892
-8.003181,-32.251682,6.847278
-7.745710,-39.283865,-13.683800
-7.745710,-38.638834,-12.616199
-7.745710,-37.973864,-11.548599
-7.745710,-37.287568,-10.480998
-7.745710,-36.580247,-9.413398
-7.745710,-35.853893,-8.345797
-7.745710,-35.112183,-7.278197
-7.745710,-34.360486,-6.210596
-7.745710,-33.605859,-5.142996
-7.745710,-32.857049,-4.075395
-7.745710,-32.124490,-3.007795
-7.745710,-31.420305,-1.940194
-7.745710,-30.758307,-0.872593
-7.745710,-30.153998,0.195007
-7.716909,-46.317287,-13.048860
-7.716909,-46.269191,-11.963854
-7.716909,-46.117146,-14.133865
-7.716909,-45.996944,-10.878849
-7.716909,-45.524771,-9.793843
-7.716909,-44.877034,-8.708837
-7.716909,-44.078235,-7.623832
-7.716909,-43.153015,-6.538826
-7.716909,-42.126153,-5.453821
-7.716909,-41.022565,-4.368815
-7.716909,-39.867309,-3.283810
-7.716909,-38.685579,-2.198804
-7.716909,-37.502709,-1.113799
-7.716909,-36.344169,-0.028793
-7.095091,-40.576886,-13.904033
-7.095091,-39.899680,-12.787080
-7.095091,-39.203417,-11.670127
-7.095091,-38.485624,-10.553173
-7.095091,-37.745851,-9.436220
-7.095091,-36.985672,-8.319267
-7.095091,-36.208683,-7.202314
-7.095091,-35.420506,-6.085361
-7.095091,-34.628785,-4.968408
-7.095091,-33.843186,-3.851454
-7.095091,-33.075403,-2.734501
-7.095091,-32.339148,-1.617548
-7.095091,-31.650161,-0.500595
-7.061988,-47.550955,-13.047853
-7.061988,-47.506514,-11.902913
-7.061988,-47.299456,-14.192794
-7.061988,-47.196600,-10.757972
-7.061988,-46.651848,-9.613032
-7.061988,-45.903068,-8.468091
-7.061988,-44.981239,-7.323150
-7.061988,-43.917516,-6.178210
-7.061988,-42.743222,-5.033269
-7.061988,-41.489854,-3.888328
-7.061988,-40.189079,-2.743388
-7.061988,-38.872738,-1.598447
-7.061988,-37.572842,-0.453507
-6.910975,-33.335948,0.473063
-6.910975,-32.750491,1.480613
-6.910975,-32.281295,2.488164
-6.910975,-32.186024,6.518366
-6.910975,-31.957222,3.495715
-6.910975,-31.873780,5.510816
-6.910975,-31.809911,4.503265
-6.836691,-38.024694,0.788989
-6.836691,-36.620383,1.818104
-6.836691,-35.377322,2.847218
-6.836691,-34.342033,3.876333
-6.836691,-33.561273,4.905448
-6.836691,-33.082030,5.934562
-6.836691,-32.951523,6.963677
-6.444472,-41.988705,-14.405563
-6.444472,-41.283399,-13.240366
-6.444472,-40.563057,-12.075169
-6.444472,-39.823285,-10.909972
-6.444472,-39.062087,-9.744776
-6.444472,-38.279860,-8.579579
-6.444472,-37.479401,-7.414382
-6.444472,-36.665899,-6.249185
-6.444472,-35.846944,-5.083988
-6.444472,-35.032521,-3.918791
-6.444472,-34.235009,-2.753594
-6.444472,-33.469186,-1.588397
-6.444472,-32.752226,-0.423201
-6.407068,-49.095946,-12.129944
-6.407068,-49.064525,-13.326807
-6.407068,-48.810061,-10.933081
-6.407068,-48.678576,-14.523671
-6.407068,-48.244297,-9.736217
-6.407068,-47.436290,-8.539354
-6.407068,-46.423876,-7.342490
-6.407068,-45.245101,-6.145627
-6.407068,-43.938214,-4.948764
-6.407068,-42.541668,-3.751900
-6.407068,-41.094124,-2.555037
-6.407068,-39.634445,-1.358174
-6.407068,-38.201703,-0.161310
-5.752147,-44.893836,-13.401865
-5.752147,-44.118969,-12.363068
-5.752147,-43.353486,-11.324271
-5.752147,-42.586367,-10.285473
-5.752147,-41.809733,-9.246676
-5.752147,-41.018846,-8.207878
-5.752147,-40.212105,-7.169081
-5.752147,-39.391047,-6.130284
-5.752147,-38.560351,-5.091486
-5.752147,-37.727834,-4.052689
-5.752147,-36.904452,-3.013892
-5.752147,-36.104301,-1.975094
-5.752147,-35.344613,-0.936297
-5.752147,-34.645765,0.102500
-5.752147,-34.031267,1.141298
-5.752147,-33.527773,2.180095
-5.752147,-33.266737,6.335284
-5.752147,-33.165072,3.218892
-5.752147,-32.996916,5.296487
-5.752147,-32.976097,4.257690
-5.670201,-53.342198,-10.122759
-5.670201,-53.290725,-11.168369
-5.670201,-52.995296,-9.077148
-5.670201,-52.792317,-12.213979
-5.670201,-52.298827,-8.031538
-5.670201,-51.798662,-13.259589
-5.670201,-51.301847,-6.985928
-5.670201,-50.053661,-5.940318
-5.670201,-48.603820,-4.894708
-5.670201,-47.002124,-3.849098
-5.670201,-45.298620,-2.803488
-5.670201,-43.543603,-1.757878
-5.670201,-41.787618,-0.712268
-5.670201,-40.081455,0.333342
-5.670201,-38.476154,1.378952
-5.670201,-37.023000,2.424562
-5.670201,-35.773530,3.470172
-5.670201,-34.779524,4.515783
-5.670201,-34.093015,5.561393
-5.670201,-33.766280,6.607003
-4.593319,-46.251922,-14.274432
-4.593319,-45.412560,-13.209846
-4.593319,-44.605739,-12.145261
-4.593319,-43.815961,-11.080675
-4.593319,-43.031190,-10.016090
-4.593319,-42.242853,-8.951504
-4.593319,-41.445839,-7.886919
-4.593319,-40.638499,-6.822333
-4.593319,-39.822650,-5.757748
-4.593319,-39.003568,-4.693162
-4.593319,-38.189994,-3.628577
-4.593319,-37.394130,-2.563991
-4.593319,-36.631643,-1.499406
-4.593319,-35.921660,-0.434820
-4.593319,-35.286773,0.629765
-4.593319,-34.753034,1.694351
-4.593319,-34.349962,2.758936
-4.593319,-34.271841,5.952693
-4.593319,-34.110533,3.823522
-4.593319,-34.071192,4.888107
-4.503711,-56.135987,-10.940471
-4.503711,-56.080056,-9.895596
-4.503711,-55.727599,-11.985347
-4.503711,-55.611152,-8.850721
-4.503711,-54.803793,-13.030222
-4.503711,-54.780869,-7.805845
-4.503711,-53.641049,-6.760970
-4.503711,-53.313714,-14.075097
-4.503711,-52.243780,-5.716095
-4.503711,-50.641398,-4.671219
-4.503711,-48.886485,-3.626344
-4.503711,-47.031870,-2.581469
-4.503711,-45.130632,-1.536593
-4.503711,-43.236094,-0.491718
-4.503711,-41.401828,0.553157
-4.503711,-39.681652,1.598033
-4.503711,-38.129632,2.642908
-4.503711,-36.800080,3.687783
-4.503711,-35.747558,4.732659
-4.503711,-35.026872,5.777534
-3.434491,-47.459187,-15.167971
-3.434491,-46.518977,-14.081269
-3.434491,-45.642074,-12.994566
-3.434491,-44.808031,-11.907863
-3.434491,-44.000160,-10.821160
-3.434491,-43.205533,-9.734458
-3.434491,-42.414981,-8.647755
-3.434491,-41.623095,-7.561052
-3.434491,-40.828225,-6.474349
-3.434491,-40.032480,-5.387647
-3.434491,-39.241730,-4.300944
-3.434491,-38.465604,-3.214241
-3.434491,-37.717490,-2.127538
-3.434491,-37.014537,-1.040836
-3.434491,-36.377651,0.045867
-3.434491,-35.831500,1.132570
-3.434491,-35.404510,2.219272
-3.434491,-35.179168,5.479381
-3.434491,-35.128868,3.305975
-3.434491,-35.040519,4.392678
-3.337221,-59.464932,-10.878114
-3.337221,-59.360224,-9.850981
-3.337221,-59.095283,-11.905247
-3.337221,-58.832637,-8.823847
-3.337221,-58.200025,-12.932381
-3.337221,-57.933883,-7.796714
-3.337221,-56.728140,-13.959514
-3.337221,-56.715904,-6.769581
-3.337221,-55.230874,-5.742447
-3.337221,-54.628841,-14.986647
-3.337221,-53.531195,-4.715314
-3.337221,-51.669501,-3.688181
-3.337221,-49.698659,-2.661047
-3.337221,-47.671764,-1.633914
-3.337221,-45.642144,-0.606781
-3.337221,-43.663355,0.420353
-3.337221,-41.789186,1.447486
-3.337221,-40.073657,2.474619
-3.337221,-38.571017,3.501753
-3.337221,-37.335747,4.528886
-2.275662,-48.425049,-15.993351
-2.275662,-47.341546,-14.884039
-2.275662,-46.358588,-13.774728
-2.275662,-45.450464,-12.665416
-2.275662,-44.595543,-11.556104
-2.275662,-43.776278,-10.446793
-2.275662,-42.979204,-9.337481
-2.275662,-42.194939,-8.228169
-2.275662,-41.418181,-7.118858
-2.275662,-40.647713,-6.009546
-2.275662,-39.886399,-4.900234
-2.275662,-39.141185,-3.790923
-2.275662,-38.423099,-2.681611
-2.275662,-37.747254,-1.572299
-2.275662,-37.132842,-0.462988
-2.275662,-36.603140,0.646324
-2.275662,-36.185505,1.755636
-2.275662,-35.939816,5.083571
-2.275662,-35.911377,2.864947
-2.275662,-35.816279,3.974259
-2.170731,-63.355918,-10.956944
-2.170731,-63.259905,-9.961593
-2.170731,-62.974574,-11.952296
-2.170731,-62.735815,-8.966241
-2.170731,-62.066797,-12.947648
-2.170731,-61.833130,-7.970890
-2.170731,-60.601537,-6.975538
-2.170731,-60.583716,-13.942999
-2.170731,-59.090926,-5.980186
-2.170731,-58.476662,-14.938351
-2.170731,-57.351390,-4.984835
-2.170731,-55.697168,-15.933703
-2.170731,-55.433225,-3.989483
-2.170731,-53.386934,-2.994131
-2.170731,-51.263219,-1.998780
-2.170731,-49.112988,-1.003428
-2.170731,-46.987352,-0.008076
-2.170731,-44.937627,0.987275
-2.170731,-43.015330,1.982627
-2.170731,-41.272183,2.977978
-1.116834,-48.994786,-16.647130
-1.116834,-47.730034,-15.507745
-1.116834,-46.607919,-14.368360
-1.116834,-45.597018,-13.228974
-1.116834,-44.670449,-12.089589
-1.116834,-43.805876,-10.950204
-1.116834,-42.985503,-9.810819
-1.116834,-42.196081,-8.671433
-1.116834,-41.428902,-7.532048
-1.116834,-40.679802,-6.392663
-1.116834,-39.949160,-5.253278
-1.116834,-39.241898,-4.113893
-1.116834,-38.567482,-2.974507
-1.116834,-37.939922,-1.835122
-1.116834,-37.377769,-0.695737
-1.116834,-36.904121,0.443648
-1.116834,-36.546615,1.583034
-1.116834,-36.515499,5.001189
-1.116834,-36.337435,2.722419
-1.116834,-36.313307,3.861804
-1.004242,-67.877988,-11.109969
-1.004242,-67.822451,-10.154202
-1.004242,-67.459033,-12.065736
-1.004242,-67.338190,-9.198435
-1.004242,-66.519990,-13.021503
-1.004242,-66.471149,-8.242668
-1.004242,-65.267442,-7.286901
-1.004242,-65.015437,-13.977270
-1.004242,-63.773357,-6.331134
-1.004242,-62.900122,-14.933037
-1.004242,-62.035356,-5.375367
-1.004242,-60.128970,-15.888804
-1.004242,-60.100073,-4.419600
-1.004242,-58.014315,-3.463833
-1.004242,-56.657076,-16.844571
-1.004242,-55.825062,-2.508066
-1.004242,-53.579468,-1.552299
-1.004242,-51.324859,-0.596532
-1.004242,-49.108735,0.359235
-1.004242,-46.978768,1.315002
-0.162248,-73.117091,-11.207534
-0.162248,-73.071135,-10.289125
-0.162248,-72.694177,-12.125944
-0.162248,-72.598827,-9.370715
-0.162248,-71.760026,-13.044354
-0.162248,-71.742828,-8.452305
-0.162248,-70.545950,-7.533895
-0.162248,-70.272418,-13.962764
-0.162248,-69.051151,-6.615486
-0.162248,-68.189278,-14.881174
-0.162248,-67.301538,-5.697076
-0.162248,-65.468682,-15.799583
-0.162248,-65.340362,-4.778666
-0.162248,-63.211027,-3.860256
-0.162248,-62.068851,-16.717993
-0.162248,-60.957079,-2.941846
-0.162248,-58.622214,-2.023437
-0.162248,-57.948154,-17.636403
-0.162248,-56.250278,-1.105027
-0.162248,-53.885259,-0.186617
-0.041994,-48.912238,-17.011558
-0.041994,-47.445545,-15.824416
-0.041994,-46.167212,-14.637274
-0.041994,-45.039092,-13.450132
-0.041994,-44.028388,-12.262990
-0.041994,-43.107660,-11.075848
-0.041994,-42.254820,-9.888707
-0.041994,-41.453137,-8.701565
-0.041994,-40.691231,-7.514423
-0.041994,-39.963081,-6.327281
-0.041994,-39.268015,-5.140139
-0.041994,-38.610718,-3.952997
-0.041994,-38.001231,-2.765855
-0.041994,-37.454945,-1.578713
-0.041994,-37.041144,5.544139
-0.041994,-36.992609,-0.391571
-0.041994,-36.640325,0.795571
-0.041994,-36.585116,4.356997
-0.041994,-36.429549,1.982713
-0.041994,-36.397091,3.169855
0.041994,-48.912238,-17.011558
0.041994,-47.445545,-15.824416
0.041994,-46.167212,-14.637274
0.041994,-45.039092,-13.450132
0.041994,-44.028388,-12.262990
0.041994,-43.107660,-11.075848
0.041994,-42.254820,-9.888707
0.041994,-41.453137,-8.701565
0.041994,-40.691231,-7.514423
0.041994,-39.963081,-6.327281
0.041994,-39.268015,-5.140139
0.041994,-38.610718,-3.952997
0.041994,-38.001231,-2.765855
0.041994,-37.454945,-1.578713
0.041994,-37.041144,5.544139
0.041994,-36.992609,-0.391571
0.041994,-36.640325,0.795571
0.041994,-36.585116,4.356997
0.041994,-36.429549,1.982713
0.041994,-36.397091,3.169855
0.162248,-73.117091,-11.207534
0.162248,-73.071135,-10.289125
0.162248,-72.694177,-12.125944
0.162248,-72.598827,-9.370715
0.162248,-71.760026,-13.044354
0.162248,-71.742828,-8.452305
0.162248,-70.545950,-7.533895
0.162248,-70.272418,-13.962764
0.162248,-69.051151,-6.615486
0.162248,-68.189278,-14.881174
0.162248,-67.301538,-5.697076
0.162248,-65.468682,-15.799583
0.162248,-65.340362,-4.778666
0.162248,-63.211027,-3.860256
0.162248,-62.068851,-16.717993
0.162248,-60.957079,-2.941846
0.162248,-58.622214,-2.023437
0.162248,-57.948154,-17.636403
0.162248,-56.250278,-1.105027
0.162248,-53.885259,-0.186617
1.004242,-67.877988,-11.109969
1.004242,-67.822451,-10.154202
1.004242,-67.459033,-12.065736
1.004242,-67.338190,-9.198435
1.004242,-66.519990,-13.021503
1.004242,-66.471149,-8.242668
1.004242,-65.267442,-7.286901
1.004242,-65.015437,-13.977270
1.004242,-63.773357,-6.331134
1.004242,-62.900122,-14.933037
1.004242,-62.035356,-5.375367
1.004242,-60.128970,-15.888804
1.004242,-60.100073,-4.419600
1.004242,-58.014315,-3.463833
1.004242,-56.657076,-16.844571
1.004242,-55.825062,-2.508066
1.004242,-53.579468,-1.552299
1.004242,-51.324859,-0.596532
1.004242,-49.108735,0.359235
1.004242,-46.978768,1.315002
1.116834,-48.994786,-16.647130
1.116834,-47.730034,-15.507745
1.116834,-46.607919,-14.368360
1.116834,-45.597018,-13.228974
1.116834,-44.670449,-12.089589
1.116834,-43.805876,-10.950204
1.116834,-42.985503,-9.810819
1.116834,-42.196081,-8.671433
1.116834,-41.428902,-7.532048
1.116834,-40.679802,-6.392663
1.116834,-39.949160,-5.253278
1.116834,-39.241898,-4.113893
1.116834,-38.567482,-2.974507
1.116834,-37.939922,-1.835122
1.116834,-37.377769,-0.695737
1.116834,-36.904121,0.443648
1.116834,-36.546615,1.583034
1.116834,-36.515499,5.001189
1.116834,-36.337435,2.722419
1.116834,-36.313307,3.861804
2.170731,-63.355918,-10.956944
2.170731,-63.259905,-9.961593
2.170731,-62.974574,-11.952296
2.170731,-62.735815,-8.966241
2.170731,-62.066797,-12.947648
2.170731,-61.833130,-7.970890
2.170731,-60.601537,-6.975538
2.170731,-60.583716,-13.942999
2.170731,-59.090926,-5.980186
2.170731,-58.476662,-14.938351
2.170731,-57.351390,-4.984835
2.170731,-55.697168,-15.933703
2.170731,-55.433225,-3.989483
2.170731,-53.386934,-2.994131
2.170731,-51.263219,-1.998780
2.170731,-49.112988,-1.003428
2.170731,-46.987352,-0.008076
2.170731,-44.937627,0.987275
2.170731,-43.015330,1.982627
2.170731,-41.272183,2.977978
2.275662,-48.425049,-15.993351
2.275662,-47.341546,-14.884039
2.275662,-46.358588,-13.774728
2.275662,-45.450464,-12.665416
2.275662,-44.595543,-11.556104
2.275662,-43.776278,-10.446793
2.275662,-42.979204,-9.337481
2.275662,-42.194939,-8.228169
2.275662,-41.418181,-7.118858
2.275662,-40.647713,-6.009546
2.275662,-39.886399,-4.900234
2.275662,-39.141185,-3.790923
2.275662,-38.423099,-2.681611
2.275662,-37.747254,-1.572299
2.275662,-37.132842,-0.462988
2.275662,-36.603140,0.646324
2.275662,-36.185505,1.755636
2.275662,-35.939816,5.083571
2.275662,-35.911377,2.864947
2.275662,-35.816279,3.974259
3.337221,-59.464932,-10.878114
3.337221,-59.360224,-9.850981
3.337221,-59.095283,-11.905247
3.337221,-58.832637,-8.823847
3.337221,-58.200025,-12.932381
3.337221,-57.933883,-7.796714
3.337221,-56.728140,-13.959514
3.337221,-56.715904,-6.769581
3.337221,-55.230874,-5.742447
3.337221,-54.628841,-14.986647
3.337221,-53.531195,-4.715314
3.337221,-51.669501,-3.688181
3.337221,-49.698659,-2.661047
3.337221,-47.671764,-1.633914
3.337221,-45.642144,-0.606781
3.337221,-43.663355,0.420353
3.337221,-41.789186,1.447486
3.337221,-40.073657,2.474619
3.337221,-38.571017,3.501753
3.337221,-37.335747,4.528886
3.434491,-47.459187,-15.167971
3.434491,-46.518977,-14.081269
3.434491,-45.642074,-12.994566
3.434491,-44.808031,-11.907863
3.434491,-44.000160,-10.821160
3.434491,-43.205533,-9.734458
3.434491,-42.414981,-8.647755
3.434491,-41.623095,-7.561052
3.434491,-40.828225,-6.474349
3.434491,-40.032480,-5.387647
3.434491,-39.241730,-4.300944
3.434491,-38.465604,-3.214241
3.434491,-37.717490,-2.127538
3.434491,-37.014537,-1.040836
3.434491,-36.377651,0.045867
3.434491,-35.831500,1.132570
3.434491,-35.404510,2.219272
3.434491,-35.179168,5.479381
3.434491,-35.128868,3.305975
3.434491,-35.040519,4.392678
4.503711,-56.135987,-10.940471
4.503711,-56.080056,-9.895596
4.503711,-55.727599,-11.985347
4.503711,-55.611152,-8.850721
4.503711,-54.803793,-13.030222
4.503711,-54.780869,-7.805845
4.503711,-53.641049,-6.760970
4.503711,-53.313714,-14.075097
4.503711,-52.243780,-5.716095
4.503711,-50.641398,-4.671219
4.503711,-48.886485,-3.626344
4.503711,-47.031870,-2.581469
4.503711,-45.130632,-1.536593
4.503711,-43.236094,-0.491718
4.503711,-41.401828,0.553157
4.503711,-39.681652,1.598033
4.503711,-38.129632,2.642908
4.503711,-36.800080,3.687783
4.503711,-35.747558,4.732659
4.503711,-35.026872,5.777534
4.593319,-46.251922,-14.274432
4.593319,-45.412560,-13.209846
4.593319,-44.605739,-12.145261
4.593319,-43.815961,-11.080675
4.593319,-43.031190,-10.016090
4.593319,-42.242853,-8.951504
4.593319,-41.445839,-7.886919
4.593319,-40.638499,-6.822333
4.593319,-39.822650,-5.757748
4.593319,-39.003568,-4.693162
4.593319,-38.189994,-3.628577
4.593319,-37.394130,-2.563991
4.593319,-36.631643,-1.499406
4.593319,-35.921660,-0.434820
4.593319,-35.286773,0.629765
4.593319,-34.753034,1.694351
4.593319,-34.349962,2.758936
4.593319,-34.271841,5.952693
4.593319,-34.110533,3.823522
4.593319,-34.071192,4.888107
5.670201,-53.342198,-10.122759
5.670201,-53.290725,-11.168369
5.670201,-52.995296,-9.077148
5.670201,-52.792317,-12.213979
5.670201,-52.298827,-8.031538
5.670201,-51.798662,-13.259589
5.670201,-51.301847,-6.985928
5.670201,-50.053661,-5.940318
5.670201,-48.603820,-4.894708
5.670201,-47.002124,-3.849098
5.670201,-45.298620,-2.803488
5.670201,-43.543603,-1.757878
5.670201,-41.787618,-0.712268
5.670201,-40.081455,0.333342
5.670201,-38.476154,1.378952
5.670201,-37.023000,2.424562
5.670201,-35.773530,3.470172
5.670201,-34.779524,4.515783
5.670201,-34.093015,5.561393
5.670201,-33.766280,6.607003
5.752147,-44.893836,-13.401865
5.752147,-44.118969,-12.363068
5.752147,-43.353486,-11.324271
5.752147,-42.586367,-10.285473
5.752147,-41.809733,-9.246676
5.752147,-41.018846,-8.207878
5.752147,-40.212105,-7.169081
5.752147,-39.391047,-6.130284
5.752147,-38.560351,-5.091486
5.752147,-37.727834,-4.052689
5.752147,-36.904452,-3.013892
5.752147,-36.104301,-1.975094
5.752147,-35.344613,-0.936297
5.752147,-34.645765,0.102500
5.752147,-34.031267,1.141298
5.752147,-33.527773,2.180095
5.752147,-33.266737,6.335284
5.752147,-33.165072,3.218892
5.752147,-32.996916,5.296487
5.752147,-32.976097,4.257690
6.407068,-49.095946,-12.129944
6.407068,-49.064525,-13.326807
6.407068,-48.810061,-10.933081
6.407068,-48.678576,-14.523671
6.407068,-48.244297,-9.736217
6.407068,-47.436290,-8.539354
6.407068,-46.423876,-7.342490
6.407068,-45.245101,-6.145627
6.407068,-43.938214,-4.948764
6.407068,-42.541668,-3.751900
6.407068,-41.094124,-2.555037
6.407068,-39.634445,-1.358174
6.407068,-38.201703,-0.161310
6.444472,-41.988705,-14.405563
6.444472,-41.283399,-13.240366
6.444472,-40.563057,-12.075169
6.444472,-39.823285,-10.909972
6.444472,-39.062087,-9.744776
6.444472,-38.279860,-8.579579
6.444472,-37.479401,-7.414382
6.444472,-36.665899,-6.249185
6.444472,-35.846944,-5.083988
6.444472,-35.032521,-3.918791
6.444472,-34.235009,-2.753594
6.444472,-33.469186,-1.588397
6.444472,-32.752226,-0.423201
6.836691,-38.024694,0.788989
6.836691,-36.620383,1.818104
6.836691,-35.377322,2.847218
6.836691,-34.342033,3.876333
6.836691,-33.561273,4.905448
6.836691,-33.082030,5.934562
6.836691,-32.951523,6.963677
6.910975,-33.335948,0.473063
6.910975,-32.750491,1.480613
6.910975,-32.281295,2.488164
6.910975,-32.186024,6.518366
6.910975,-31.957222,3.495715
6.910975,-31.873780,5.510816
6.910975,-31.809911,4.503265
7.061988,-47.550955,-13.047853
7.061988,-47.506514,-11.902913
7.061988,-47.299456,-14.192794
7.061988,-47.196600,-10.757972
7.061988,-46.651848,-9.613032
7.061988,-45.903068,-8.468091
7.061988,-44.981239,-7.323150
7.061988,-43.917516,-6.178210
7.061988,-42.743222,-5.033269
7.061988,-41.489854,-3.888328
7.061988,-40.189079,-2.743388
7.061988,-38.872738,-1.598447
7.061988,-37.572842,-0.453507
7.095091,-40.576886,-13.904033
7.095091,-39.899680,-12.787080
7.095091,-39.203417,-11.670127
7.095091,-38.485624,-10.553173
7.095091,-37.745851,-9.436220
7.095091,-36.985672,-8.319267
7.095091,-36.208683,-7.202314
7.095091,-35.420506,-6.085361
7.095091,-34.628785,-4.968408
7.095091,-33.843186,-3.851454
7.095091,-33.075403,-2.734501
7.095091,-32.339148,-1.617548
7.095091,-31.650161,-0.500595
7.716909,-46.317287,-13.048860
7.716909,-46.269191,-11.963854
7.716909,-46.117146,-14.133865
7.716909,-45.996944,-10.878849
7.716909,-45.524771,-9.793843
7.716909,-44.877034,-8.708837
7.716909,-44.078235,-7.623832
7.716909,-43.153015,-6.538826
7.716909,-42.126153,-5.453821
7.716909,-41.022565,-4.368815
7.716909,-39.867309,-3.283810
7.716909,-38.685579,-2.198804
7.716909,-37.502709,-1.113799
7.716909,-36.344169,-0.028793
7.745710,-39.283865,-13.683800
7.745710,-38.638834,-12.616199
7.745710,-37.973864,-11.548599
7.745710,-37.287568,-10.480998
7.745710,-36.580247,-9.413398
7.745710,-35.853893,-8.345797
7.745710,-35.112183,-7.278197
7.745710,-34.360486,-6.210596
7.745710,-33.605859,-5.142996
7.745710,-32.857049,-4.075395
7.745710,-32.124490,-3.007795
7.745710,-31.420305,-1.940194
7.745710,-30.758307,-0.872593
7.745710,-30.153998,0.195007
8.003181,-36.835171,0.862961
8.003181,-35.574331,1.860347
8.003181,-34.458868,2.857733
8.003181,-33.528673,3.855119
8.003181,-32.823842,4.852506
8.003181,-32.384676,5.849892
8.003181,-32.251682,6.847278
8.069803,-32.103699,0.618330
8.069803,-31.545572,1.589328
8.069803,-31.102208,2.560325
8.069803,-31.047514,6.444315
8.069803,-30.800366,3.531322
8.069803,-30.740268,5.473317
8.069803,-30.669202,4.502320
8.371829,-45.337360,-13.328920
8.371829,-45.335308,-12.305250
8.371829,-45.140655,-11.281579
8.371829,-45.128158,-14.352590
8.371829,-44.772161,-10.257909
8.371829,-44.248698,-9.234239
8.371829,-43.589247,-8.210569
8.371829,-42.812900,-7.186899
8.371829,-41.938856,-6.163229
8.371829,-40.986427,-5.139559
8.371829,-39.975032,-4.115889
8.371829,-38.924202,-3.092219
8.371829,-37.853578,-2.068549
8.371829,-36.782908,-1.044879
8.371829,-35.732053,-0.021209
8.396329,-38.166645,-13.765970
8.396329,-37.558628,-12.744800
8.396329,-36.931561,-11.723629
8.396329,-36.284494,-10.702458
8.396329,-35.617889,-9.681288
8.396329,-34.933623,-8.660117
8.396329,-34.234986,-7.638947
8.396329,-33.526682,-6.617776
8.396329,-32.814830,-5.596605
8.396329,-32.106960,-4.575435
8.396329,-31.412018,-3.554264
8.396329,-30.740362,-2.533093
8.396329,-30.103766,-1.511923
8.396329,-29.515415,-0.490752
9.026750,-44.628707,-12.905901
9.026750,-44.552294,-13.873593
9.026750,-44.535516,-11.938209
9.026750,-44.291875,-14.841285
9.026750,-44.287209,-10.970517
9.026750,-43.898362,-10.002825
9.026750,-43.383641,-9.035133
9.026750,-42.757796,-8.067441
9.026750,-42.035667,-7.099748
9.026750,-41.232181,-6.132056
9.026750,-40.362353,-5.164364
9.026750,-39.441286,-4.196672
9.026750,-38.484169,-3.228980
9.026750,-37.506282,-2.261288
9.026750,-36.522988,-1.293596
9.026750,-35.549743,-0.325904
9.046948,-37.263837,-14.154480
9.046948,-36.695378,-13.172546
9.046948,-36.109711,-12.190613
9.046948,-35.505861,-11.208679
9.046948,-34.884061,-10.226746
9.046948,-34.245753,-9.244812
9.046948,-33.593589,-8.262879
9.046948,-32.931428,-7.280945
9.046948,-32.264338,-6.299012
9.046948,-31.598596,-5.317078
9.046948,-30.941688,-4.335145
9.046948,-30.302307,-3.353211
9.046948,-29.690357,-2.371278
9.046948,-29.116948,-1.389345
9.046948,-28.594401,-0.407411
9.169671,-36.321575,0.576195
9.169671,-35.151293,1.530312
9.169671,-34.094522,2.484429
9.169671,-33.183963,3.438547
9.169671,-32.452486,4.392664
9.169671,-31.933134,5.346781
9.169671,-31.659122,6.300898
9.228632,-31.026204,0.513632
9.228632,-30.487060,1.444426
9.228632,-30.054540,2.375221
9.228632,-29.897691,6.098398
9.228632,-29.752475,3.306015
9.228632,-29.645160,5.167603
9.228632,-29.606722,4.236809
9.681670,-44.084191,-12.808844
9.681670,-44.062592,-13.732190
9.681670,-43.963104,-11.885497
9.681670,-43.886921,-14.655537
9.681670,-43.710793,-10.962151
9.681670,-43.545861,-15.578883
9.681670,-43.338790,-10.038804
9.681670,-42.858701,-9.115457
9.681670,-42.282204,-8.192111
9.681670,-41.621052,-7.268764
9.681670,-40.887067,-6.345418
9.681670,-40.092147,-5.422071
9.681670,-39.248260,-4.498725
9.681670,-38.367449,-3.575378
9.681670,-37.461828,-2.652032
9.681670,-36.543585,-1.728685
9.681670,-35.624980,-0.805339
9.681670,-34.718345,0.118008
9.697567,-36.594014,-14.836093
9.697567,-36.063768,-13.882217
9.697567,-35.518812,-12.928342
9.697567,-34.957820,-11.974467
9.697567,-34.380545,-11.020592
9.697567,-33.787814,-10.066717
9.697567,-33.181532,-9.112842
9.697567,-32.564680,-8.158967
9.697567,-31.941315,-7.205092
9.697567,-31.316571,-6.251216
9.697567,-30.696657,-5.297341
9.697567,-30.088858,-4.343466
9.697567,-29.501539,-3.389591
9.697567,-28.944136,-2.435716
9.697567,-28.427165,-1.481841
9.697567,-27.962217,-0.527966
10.336161,-35.235571,0.880177
10.336161,-34.202663,1.784348
10.336161,-33.271334,2.688520
10.336161,-32.467610,3.592691
10.336161,-31.817655,4.496862
10.336161,-31.347773,5.401034
10.336591,-43.708233,-12.947745
10.336591,-43.700436,-13.843540
10.336591,-43.589446,-12.051950
10.336591,-43.556699,-14.739336
10.336591,-43.353495,-11.156155
10.336591,-43.267731,-15.635131
10.336591,-43.009864,-10.260359
10.336591,-42.824305,-16.530926
10.336591,-42.568102,-9.364564
10.336591,-42.037823,-8.468769
10.336591,-41.428705,-7.572974
10.336591,-40.750489,-6.677178
10.336591,-40.012981,-5.781383
10.336591,-39.226054,-4.885588
10.336591,-38.399641,-3.989793
10.336591,-37.543743,-3.093997
10.336591,-36.668424,-2.198202
10.336591,-35.783811,-1.302407
10.336591,-34.900099,-0.406611
10.348186,-36.159806,-15.780404
10.348186,-35.661931,-14.840228
10.348186,-35.152631,-13.900053
10.348186,-34.629965,-12.959877
10.348186,-34.093008,-12.019702
10.348186,-33.541849,-11.079527
10.348186,-32.977596,-10.139351
10.348186,-32.402371,-9.199176
10.348186,-31.819311,-8.259000
10.348186,-31.232570,-7.318825
10.348186,-30.647318,-6.378649
10.348186,-30.069739,-5.438474
10.348186,-29.507035,-4.498299
10.348186,-28.967423,-3.558123
10.348186,-28.460135,-2.617948
10.348186,-27.995420,-1.677772
10.348186,-27.584541,-0.737597
10.348186,-27.239779,0.202578
10.387460,-29.624569,1.052173
10.387460,-29.188897,1.941840
10.387460,-28.867553,2.831507
10.387460,-28.820493,5.500509
10.387460,-28.682792,3.721174
10.387460,-28.658560,4.610841
10.991512,-43.469426,-13.207280
10.991512,-43.460255,-14.095738
10.991512,-43.360258,-12.318822
10.991512,-43.324645,-14.984196
10.991512,-43.140914,-11.430364
10.991512,-43.054555,-15.872654
10.991512,-42.819621,-10.541906
10.991512,-42.642011,-16.761112
10.991512,-42.404667,-9.653448
10.991512,-42.079097,-17.649569
10.991512,-41.904401,-8.764990
10.991512,-41.327236,-7.876532
10.991512,-40.681649,-6.988074
10.991512,-39.976175,-6.099616
10.991512,-39.219414,-5.211158
10.991512,-38.420029,-4.322700
10.991512,-37.586744,-3.434242
10.991512,-36.728345,-2.545784
10.991512,-35.853681,-1.657326
10.991512,-34.971663,-0.768868
10.998805,-35.956275,-16.939837
10.998805,-35.480213,-15.997151
10.998805,-34.997289,-15.054465
10.998805,-34.504661,-14.111780
10.998805,-34.000511,-13.169094
10.998805,-33.484052,-12.226409
10.998805,-32.955519,-11.283723
10.998805,-32.416178,-10.341038
10.998805,-31.868319,-9.398352
10.998805,-31.315259,-8.455667
10.998805,-30.761342,-7.512981
10.998805,-30.211938,-6.570295
10.998805,-29.673446,-5.627610
10.998805,-29.153289,-4.684924
10.998805,-28.659918,-3.742239
10.998805,-28.202810,-2.799553
10.998805,-27.792470,-1.856868
10.998805,-27.440427,-0.914182
10.998805,-27.159240,0.028503
11.502651,-34.720982,0.835384
11.502651,-33.769774,1.688442
11.502651,-32.898619,2.541501
11.502651,-32.127814,3.394559
11.502651,-31.477770,4.247618
11.546288,-28.989909,0.442015
11.546288,-28.543263,1.292991
11.546288,-28.192903,2.143966
11.546288,-27.957671,2.994942
11.546288,-27.915023,4.696893
11.546288,-27.857821,3.845918
11.646432,-43.331552,-13.459286
11.646432,-43.325171,-14.361668
11.646432,-43.222267,-12.556903
11.646432,-43.195713,-15.264051
11.646432,-43.004796,-11.654520
11.646432,-42.935832,-16.166433
11.646432,-42.686682,-10.752138
11.646432,-42.538248,-17.068816
11.646432,-42.275538,-9.849755
11.646432,-41.995747,-17.971199
11.646432,-41.779041,-8.947373
11.646432,-41.301183,-18.873581
11.646432,-41.204934,-8.044990
11.646432,-40.561028,-7.142608
11.646432,-39.855199,-6.240225
11.646432,-39.095389,-5.337842
11.646432,-38.289609,-4.435460
11.646432,-37.445932,-3.533077
11.646432,-36.572502,-2.630695
11.646432,-35.677525,-1.728312
11.649424,-35.980285,-18.249644
11.649424,-35.510639,-17.288239
11.649424,-35.040747,-16.326833
11.649424,-34.566507,-15.365427
11.649424,-34.084929,-14.404021
11.649424,-33.594133,-13.442615
11.649424,-33.093350,-12.481210
11.649424,-32.582921,-11.519804
11.649424,-32.064300,-10.558398
11.649424,-31.540049,-9.596992
11.649424,-31.013843,-8.635586
11.649424,-30.490464,-7.674181
11.649424,-29.975810,-6.712775
11.649424,-29.476884,-5.751369
11.649424,-29.001805,-4.789963
11.649424,-28.559800,-3.828557
11.649424,-28.161205,-2.867151
11.649424,-27.817470,-1.905746
11.649424,-27.541155,-0.944340
11.649424,-27.345928,0.017066
12.300042,-36.235828,-19.627910
12.300042,-35.752748,-18.633947
12.300042,-35.278965,-17.639984
12.300042,-34.808687,-16.646020
12.300042,-34.337389,-15.652057
12.300042,-33.861818,-14.658094
12.300042,-33.379988,-13.664131
12.300042,-32.891181,-12.670167
12.300042,-32.395951,-11.676204
12.300042,-31.896119,-10.682241
12.300042,-31.394773,-9.688278
12.300042,-30.896275,-8.694314
12.300042,-30.406252,-7.700351
12.300042,-29.931601,-6.706388
12.300042,-29.480487,-5.712425
12.300042,-29.062347,-4.718462
12.300042,-28.687884,-3.724498
12.300042,-28.369071,-2.730535
12.300042,-28.119149,-1.736572
12.300042,-27.952630,-0.742609
12.301353,-43.275739,-14.514646
12.301353,-43.259428,-13.579030
12.301353,-43.168487,-15.450262
12.301353,-43.126625,-12.643414
12.301353,-42.930676,-16.385878
12.301353,-42.884480,-11.707798
12.301353,-42.555385,-17.321494
12.301353,-42.540220,-10.772182
12.301353,-42.101147,-9.836566
12.301353,-42.035773,-18.257110
12.301353,-41.574639,-8.900950
12.301353,-41.365073,-19.192726
12.301353,-40.968154,-7.965335
12.301353,-40.536595,-20.128342
12.301353,-40.289222,-7.029719
12.301353,-39.545454,-6.094103
12.301353,-38.744535,-5.158487
12.301353,-37.894227,-4.222871
12.301353,-37.002369,-3.287255
12.301353,-36.076877,-2.351639
12.669141,-34.602086,0.534824
12.669141,-33.695647,1.341234
12.669141,-32.846142,2.147644
12.669141,-32.069375,2.954054
12.705116,-28.136245,0.478769
12.705116,-27.757216,1.297047
12.705116,-27.473260,2.115324
12.705116,-27.301532,2.933602
12.705116,-27.260396,3.751880
12.950661,-36.729829,-20.975545
12.950661,-36.211307,-19.940456
12.950661,-35.715055,-18.905367
12.950661,-35.233171,-17.870278
12.950661,-34.759243,-16.835188
12.950661,-34.288356,-15.800099
12.950661,-33.817082,-14.765010
12.950661,-33.343489,-13.729921
12.950661,-32.867136,-12.694831
12.950661,-32.389075,-11.659742
12.950661,-31.911850,-10.624653
12.950661,-31.439497,-9.589563
12.950661,-30.977545,-8.554474
12.950661,-30.533015,-7.519385
12.950661,-30.114421,-6.484296
12.950661,-29.731769,-5.449206
12.950661,-29.396556,-4.414117
12.950661,-29.121773,-3.379028
12.950661,-28.921905,-2.343939
12.950661,-28.812925,-1.308849
12.956273,-43.277029,-14.447825
12.956273,-43.222338,-15.430399
12.956273,-43.206274,-13.465251
12.956273,-43.035458,-16.412974
12.956273,-43.016909,-12.482677
12.956273,-42.715865,-11.500103
12.956273,-42.709740,-17.395548
12.956273,-42.310163,-10.517529
12.956273,-42.238627,-18.378122
12.956273,-41.806919,-9.534955
12.956273,-41.615655,-19.360696
12.956273,-41.213342,-8.552381
12.956273,-40.834455,-20.343270
12.956273,-40.536735,-7.569807
12.956273,-39.888750,-21.325844
12.956273,-39.784493,-6.587233
12.956273,-38.964105,-5.604659
12.956273,-38.083153,-4.622085
12.956273,-37.149311,-3.639511
12.956273,-36.170348,-2.656937
13.601280,-37.456062,-22.176292
13.601280,-36.884186,-21.100194
13.601280,-36.350233,-20.024097
13.601280,-35.844031,-18.947999
13.601280,-35.357155,-17.871902
13.601280,-34.882919,-16.795805
13.601280,-34.416381,-15.719707
13.601280,-33.954345,-14.643610
13.601280,-33.495355,-13.567512
13.601280,-33.039701,-12.491415
13.601280,-32.589415,-11.415317
13.601280,-32.148272,-10.339220
13.601280,-31.721790,-9.263122
13.601280,-31.317233,-8.187025
13.601280,-30.943604,-7.110928
13.601280,-30.611653,-6.034830
13.601280,-30.333873,-4.958733
13.601280,-30.124497,-3.882635
13.601280,-29.999504,-2.806538
13.601280,-29.976618,-1.730440
13.611194,-43.298861,-15.130802
13.611194,-43.263908,-14.097390
13.611194,-43.201437,-16.164215
13.611194,-43.102869,-13.063977
13.611194,-42.965454,-17.197628
13.611194,-42.822153,-12.030564
13.611194,-42.584849,-18.231041
13.611194,-42.428281,-10.997151
13.611194,-42.053670,-19.264454
13.611194,-41.927889,-9.963738
13.611194,-41.366079,-20.297867
13.611194,-41.327726,-8.930325
13.611194,-40.634655,-7.896912
13.611194,-40.516354,-21.331280
13.611194,-39.855655,-6.863499
13.611194,-39.498885,-22.364693
13.611194,-38.997818,-5.830086
13.611194,-38.068349,-4.796673
13.611194,-37.074567,-3.763260
13.611194,-36.023908,-2.729847
13.835631,-33.836086,0.867795
13.835631,-32.990681,1.637251
13.863944,-27.561959,0.354925
13.863944,-27.240136,1.149820
13.863944,-27.011567,1.944716
13.863944,-26.892149,2.739612
14.251899,-38.372737,-23.096720
14.251899,-37.744902,-21.992359
14.251899,-37.170319,-20.887998
14.251899,-36.637057,-19.783637
14.251899,-36.135116,-18.679276
14.251899,-35.656433,-17.574915
14.251899,-35.194876,-16.470554
14.251899,-34.746249,-15.366193
14.251899,-34.308288,-14.261832
14.251899,-33.880664,-13.157470
14.251899,-33.464980,-12.053109
14.251899,-33.064777,-10.948748
14.251899,-32.685524,-9.844387
14.251899,-32.334629,-8.740026
14.251899,-32.021431,-7.635665
14.251899,-31.757202,-6.531304
14.251899,-31.555151,-5.426943
14.251899,-31.483141,-2.113860
14.251899,-31.430418,-4.322582
14.251899,-31.400079,-3.218221
14.266114,-43.332494,-15.616315
14.266114,-43.306110,-14.542916
14.266114,-43.225304,-16.689714
14.266114,-43.151367,-13.469517
14.266114,-42.979455,-17.763113
14.266114,-42.873614,-12.396119
14.266114,-42.589998,-18.836511
14.266114,-42.478335,-11.322720
14.266114,-42.052113,-19.909910
14.266114,-41.971142,-10.249321
14.266114,-41.361116,-20.983309
14.266114,-41.357784,-9.175922
14.266114,-40.644140,-8.102523
14.266114,-40.512453,-22.056708
14.266114,-39.836223,-7.029125
14.266114,-39.501707,-23.130107
14.266114,-38.940180,-5.955726
14.266114,-37.962287,-4.882327
14.266114,-36.908958,-3.808928
14.266114,-35.786734,-2.735530
14.902518,-39.389554,-23.586231
14.902518,-38.731851,-22.483440
14.902518,-38.136942,-21.380649
14.902518,-37.592684,-20.277858
14.902518,-37.088858,-19.175067
14.902518,-36.617167,-18.072276
14.902518,-36.171236,-16.969486
14.902518,-35.746614,-15.866695
14.902518,-35.340774,-14.763904
14.902518,-34.953108,-13.661113
14.902518,-34.584935,-12.558322
14.902518,-34.239494,-11.455531
14.902518,-33.921948,-10.352740
14.902518,-33.639383,-9.249949
14.902518,-33.400807,-8.147158
14.902518,-33.317661,-2.633203
14.902518,-33.217152,-7.044367
14.902518,-33.133865,-3.735994
14.902518,-33.101271,-5.941576
14.902518,-33.067942,-4.838785
14.921035,-43.364927,-15.917963
14.921035,-43.325103,-14.835684
14.921035,-43.279679,-17.000242
14.921035,-43.163693,-13.753405
14.921035,-43.066010,-18.082521
14.921035,-42.884319,-12.671126
14.921035,-42.720707,-19.164800
14.921035,-42.490742,-11.588847
14.921035,-42.240698,-20.247078
14.921035,-41.986861,-10.506568
14.921035,-41.623044,-21.329357
14.921035,-41.376709,-9.424290
14.921035,-40.864946,-22.411636
14.921035,-40.664458,-8.342011
14.921035,-39.963741,-23.493915
14.921035,-39.854418,-7.259732
14.921035,-38.951036,-6.177453
14.921035,-37.958895,-5.095174
14.921035,-36.882715,-4.012895
14.921035,-35.727355,-2.930616
15.002121,-34.027544,0.407653
15.553137,-40.385414,-23.477054
15.553137,-39.759752,-22.427741
15.553137,-39.194713,-21.378429
15.553137,-38.680395,-20.329116
15.553137,-38.208470,-19.279803
15.553137,-37.772188,-18.230490
15.553137,-37.366374,-17.181177
15.553137,-36.987430,-16.131864
15.553137,-36.633332,-15.082551
15.553137,-36.303634,-14.033238
15.553137,-35.999467,-12.983925
15.553137,-35.723536,-11.934612
15.553137,-35.480122,-10.885299
15.553137,-35.377388,-3.540109
15.553137,-35.275084,-9.835987
15.553137,-35.140891,-4.589422
15.553137,-35.115856,-8.786674
15.553137,-35.011448,-7.737361
15.553137,-35.011015,-5.638735
15.553137,-34.972447,-6.688048
15.575956,-43.370199,-16.078998
15.575956,-43.328021,-17.112650
15.575956,-43.308353,-15.045346
15.575956,-43.180505,-18.146302
15.575956,-43.143912,-14.011695
15.575956,-42.926452,-19.179954
15.575956,-42.878418,-12.978043
15.575956,-42.564776,-20.213606
15.575956,-42.513527,-11.944391
15.575956,-42.094506,-21.247257
15.575956,-42.051010,-10.910739
15.575956,-41.514784,-22.280909
15.575956,-41.492752,-9.877087
15.575956,-40.840752,-8.843435
15.575956,-40.824867,-23.314561
15.575956,-40.097122,-7.809784
