-22.126609,-27.260908,6.754560
-22.126609,-25.760908,6.754560
-22.126609,-24.260908,6.754560
-22.126609,-35.338787,8.002154
-22.126609,-33.838787,8.002154
-22.126609,-32.338787,8.002154
-22.126609,-30.838787,8.002154
-22.126609,-29.338787,8.002154
-22.126609,-27.838787,8.002154
-22.126609,-26.338787,8.002154
-22.126609,-24.838787,8.002154
-22.126609,-36.134156,9.249748
-22.126609,-34.634156,9.249748
-22.126609,-33.134156,9.249748
-22.126609,-31.634156,9.249748
-22.126609,-30.134156,9.249748
-22.126609,-28.634156,9.249748
-22.126609,-27.134156,9.249748
-22.126609,-25.634156,9.249748
-22.126609,-37.142903,10.497342
-22.126609,-35.642903,10.497342
-22.126609,-34.142903,10.497342
-22.126609,-32.642903,10.497342
-22.126609,-31.142903,10.497342
-22.126609,-29.642903,10.497342
-22.126609,-28.142903,10.497342
-22.126609,-26.642903,10.497342
-22.126609,-38.321445,11.744936
-22.126609,-36.821445,11.744936
-22.126609,-35.321445,11.744936
-22.126609,-33.821445,11.744936
-22.126609,-32.321445,11.744936
-22.126609,-30.821445,11.744936
-22.126609,-29.321445,11.744936
-22.126609,-39.586724,12.992530
-22.126609,-38.086724,12.992530
-22.126609,-36.586724,12.992530
-22.126609,-35.086724,12.992530
-22.126609,-33.586724,12.992530
-22.126609,-32.086724,12.992530
-22.126609,-30.586724,12.992530
-22.126609,-40.816210,14.240124
-22.126609,-39.316210,14.240124
-22.126609,-37.816210,14.240124
-22.126609,-36.316210,14.240124
-22.126609,-34.816210,14.240124
-22.126609,-33.316210,14.240124
-22.126609,-31.816210,14.240124
-22.126609,-41.847899,15.487718
-22.126609,-40.347899,15.487718
-22.126609,-38.847899,15.487718
-22.126609,-37.347899,15.487718
-22.126609,-35.847899,15.487718
-22.126609,-34.347899,15.487718
-22.126609,-42.480313,16.735312
-22.126609,-40.980313,16.735312
-22.126609,-39.480313,16.735312
-22.126609,-37.980313,16.735312
-22.126609,-36.480313,16.735312
-22.126609,-42.472503,17.982906
-22.126609,-40.972503,17.982906
-22.126609,-39.472503,17.982906
-22.126609,-37.972503,17.982906
-21.198667,-32.834881,0.522791
-21.198667,-31.334881,0.522791
-21.198667,-29.834881,0.522791
-21.198667,-28.334881,0.522791
-21.198667,-26.834881,0.522791
-21.198667,-25.334881,0.522791
-21.198667,-33.644659,1.816745
-21.198667,-32.144659,1.816745
-21.198667,-30.644659,1.816745
-21.198667,-29.144659,1.816745
-21.198667,-27.644659,1.816745
-21.198667,-26.144659,1.816745
-21.198667,-24.644659,1.816745
-21.198667,-34.078004,3.110700
-21.198667,-32.578004,3.110700
-21.198667,-31.078004,3.110700
-21.198667,-29.578004,3.110700
-21.198667,-28.078004,3.110700
-21.198667,-26.578004,3.110700
-21.198667,-25.078004,3.110700
-21.198667,-34.348502,4.404655
-21.198667,-32.848502,4.404655
-21.198667,-31.348502,4.404655
-21.198667,-29.848502,4.404655
-21.198667,-28.348502,4.404655
-21.198667,-26.848502,4.404655
-21.198667,-25.348502,4.404655
-21.198667,-23.848502,4.404655
-21.198667,-34.624063,5.698609
-21.198667,-33.124063,5.698609
-21.198667,-31.624063,5.698609
-21.198667,-30.124063,5.698609
-21.198667,-28.624063,5.698609
-21.198667,-27.124063,5.698609
-21.198667,-25.624063,5.698609
-21.198667,-24.124063,5.698609
-21.198667,-35.026921,6.992564
-21.198667,-33.526921,6.992564
-21.198667,-32.026921,6.992564
-21.198667,-30.526921,6.992564
-21.198667,-29.026921,6.992564
-21.198667,-27.526921,6.992564
-21.198667,-26.026921,6.992564
-21.198667,-24.526921,6.992564
-21.198667,-35.633634,8.286519
-21.198667,-34.133634,8.286519
-21.198667,-32.633634,8.286519
-21.198667,-31.133634,8.286519
-21.198667,-29.633634,8.286519
-21.198667,-28.133634,8.286519
-21.198667,-26.633634,8.286519
-21.198667,-25.133634,8.286519
-21.198667,-36.475084,9.580473
-21.198667,-34.975084,9.580473
-21.198667,-33.475084,9.580473
-21.198667,-31.975084,9.580473
-21.198667,-30.475084,9.580473
-21.198667,-28.975084,9.580473
-21.198667,-27.475084,9.580473
-21.198667,-25.975084,9.580473
-21.198667,-37.536477,10.874428
-21.198667,-36.036477,10.874428
-21.198667,-34.536477,10.874428
-21.198667,-33.036477,10.874428
-21.198667,-31.536477,10.874428
-21.198667,-30.036477,10.874428
-21.198667,-28.536477,10.874428
-21.198667,-27.036477,10.874428
-21.198667,-38.757344,12.168383
-21.198667,-37.257344,12.168383
-21.198667,-35.757344,12.168383
-21.198667,-34.257344,12.168383
-21.198667,-32.757344,12.168383
-21.198667,-31.257344,12.168383
-21.198667,-29.757344,12.168383
-21.198667,-28.257344,12.168383
-21.198667,-40.031539,13.462337
-21.198667,-38.531539,13.462337
-21.198667,-37.031539,13.462337
-21.198667,-35.531539,13.462337
-21.198667,-34.031539,13.462337
-21.198667,-32.531539,13.462337
-21.198667,-31.031539,13.462337
-21.198667,-41.207241,14.756292
-21.198667,-39.707241,14.756292
-21.198667,-38.207241,14.756292
-21.198667,-36.707241,14.756292
-21.198667,-35.207241,14.756292
-21.198667,-33.707241,14.756292
-21.198667,-32.207241,14.756292
-21.198667,-42.086953,16.050246
-21.198667,-40.586953,16.050246
-21.198667,-39.086953,16.050246
-21.198667,-37.586953,16.050246
-21.198667,-36.086953,16.050246
-21.198667,-34.586953,16.050246
-21.198667,-42.427501,17.344201
-21.198667,-40.927501,17.344201
-21.198667,-39.427501,17.344201
-21.198667,-37.927501,17.344201
-21.198667,-36.427501,17.344201
-21.198667,-41.940036,18.638156
-21.198667,-40.440036,18.638156
-21.198667,-38.940036,18.638156
-20.502711,-33.104617,0.526967
-20.502711,-31.604617,0.526967
-20.502711,-30.104617,0.526967
-20.502711,-28.604617,0.526967
-20.502711,-27.104617,0.526967
-20.502711,-25.604617,0.526967
-20.502711,-33.905702,1.851489
-20.502711,-32.405702,1.851489
-20.502711,-30.905702,1.851489
-20.502711,-29.405702,1.851489
-20.502711,-27.905702,1.851489
-20.502711,-26.405702,1.851489
-20.502711,-24.905702,1.851489
-20.502711,-34.313971,3.176011
-20.502711,-32.813971,3.176011
-20.502711,-31.313971,3.176011
-20.502711,-29.813971,3.176011
-20.502711,-28.313971,3.176011
-20.502711,-26.813971,3.176011
-20.502711,-25.313971,3.176011
-20.502711,-23.813971,3.176011
-20.502711,-34.557134,4.500533
-20.502711,-33.057134,4.500533
-20.502711,-31.557134,4.500533
-20.502711,-30.057134,4.500533
-20.502711,-28.557134,4.500533
-20.502711,-27.057134,4.500533
-20.502711,-25.557134,4.500533
-20.502711,-24.057134,4.500533
-20.502711,-34.812753,5.825055
-20.502711,-33.312753,5.825055
-20.502711,-31.812753,5.825055
-20.502711,-30.312753,5.825055
-20.502711,-28.812753,5.825055
-20.502711,-27.312753,5.825055
-20.502711,-25.812753,5.825055
-20.502711,-24.312753,5.825055
-20.502711,-35.208245,7.149577
-20.502711,-33.708245,7.149577
-20.502711,-32.208245,7.149577
-20.502711,-30.708245,7.149577
-20.502711,-29.208245,7.149577
-20.502711,-27.708245,7.149577
-20.502711,-26.208245,7.149577
-20.502711,-24.708245,7.149577
-20.502711,-35.820878,8.474099
-20.502711,-34.320878,8.474099
-20.502711,-32.820878,8.474099
-20.502711,-31.320878,8.474099
-20.502711,-29.820878,8.474099
-20.502711,-28.320878,8.474099
-20.502711,-26.820878,8.474099
-20.502711,-25.320878,8.474099
-20.502711,-36.677774,9.798621
-20.502711,-35.177774,9.798621
-20.502711,-33.677774,9.798621
-20.502711,-32.177774,9.798621
-20.502711,-30.677774,9.798621
-20.502711,-29.177774,9.798621
-20.502711,-27.677774,9.798621
-20.502711,-26.177774,9.798621
-20.502711,-37.755906,11.123143
-20.502711,-36.255906,11.123143
-20.502711,-34.755906,11.123143
-20.502711,-33.255906,11.123143
-20.502711,-31.755906,11.123143
-20.502711,-30.255906,11.123143
-20.502711,-28.755906,11.123143
-20.502711,-27.255906,11.123143
-20.502711,-38.982100,12.447665
-20.502711,-37.482100,12.447665
-20.502711,-35.982100,12.447665
-20.502711,-34.482100,12.447665
-20.502711,-32.982100,12.447665
-20.502711,-31.482100,12.447665
-20.502711,-29.982100,12.447665
-20.502711,-28.482100,12.447665
-20.502711,-40.233037,13.772187
-20.502711,-38.733037,13.772187
-20.502711,-37.233037,13.772187
-20.502711,-35.733037,13.772187
-20.502711,-34.233037,13.772187
-20.502711,-32.733037,13.772187
-20.502711,-31.233037,13.772187
-20.502711,-41.335249,15.096709
-20.502711,-39.835249,15.096709
-20.502711,-38.335249,15.096709
-20.502711,-36.835249,15.096709
-20.502711,-35.335249,15.096709
-20.502711,-33.835249,15.096709
-20.502711,-32.335249,15.096709
-20.502711,-42.065119,16.421231
-20.502711,-40.565119,16.421231
-20.502711,-39.065119,16.421231
-20.502711,-37.565119,16.421231
-20.502711,-36.065119,16.421231
-20.502711,-34.565119,16.421231
-20.502711,-42.148886,17.745753
-20.502711,-40.648886,17.745753
-20.502711,-39.148886,17.745753
-20.502711,-37.648886,17.745753
-20.502711,-36.148886,17.745753
-20.502711,-41.262639,19.070275
-20.502711,-39.762639,19.070275
-20.502711,-38.262639,19.070275
-19.864752,-33.371278,0.530221
-19.864752,-31.871278,0.530221
-19.864752,-30.371278,0.530221
-19.864752,-28.871278,0.530221
-19.864752,-27.371278,0.530221
-19.864752,-25.871278,0.530221
-19.864752,-34.157477,1.878943
-19.864752,-32.657477,1.878943
-19.864752,-31.157477,1.878943
-19.864752,-29.657477,1.878943
-19.864752,-28.157477,1.878943
-19.864752,-26.657477,1.878943
-19.864752,-25.157477,1.878943
-19.864752,-34.536287,3.227666
-19.864752,-33.036287,3.227666
-19.864752,-31.536287,3.227666
-19.864752,-30.036287,3.227666
-19.864752,-28.536287,3.227666
-19.864752,-27.036287,3.227666
-19.864752,-25.536287,3.227666
-19.864752,-24.036287,3.227666
-19.864752,-34.747052,4.576388
-19.864752,-33.247052,4.576388
-19.864752,-31.747052,4.576388
-19.864752,-30.247052,4.576388
-19.864752,-28.747052,4.576388
-19.864752,-27.247052,4.576388
-19.864752,-25.747052,4.576388
-19.864752,-24.247052,4.576388
-19.864752,-34.975205,5.925110
-19.864752,-33.475205,5.925110
-19.864752,-31.975205,5.925110
-19.864752,-30.475205,5.925110
-19.864752,-28.975205,5.925110
-19.864752,-27.475205,5.925110
-19.864752,-25.975205,5.925110
-19.864752,-24.475205,5.925110
-19.864752,-35.352261,7.273833
-19.864752,-33.852261,7.273833
-19.864752,-32.352261,7.273833
-19.864752,-30.852261,7.273833
-19.864752,-29.352261,7.273833
-19.864752,-27.852261,7.273833
-19.864752,-26.352261,7.273833
-19.864752,-24.852261,7.273833
-19.864752,-35.955825,8.622555
-19.864752,-34.455825,8.622555
-19.864752,-32.955825,8.622555
-19.864752,-31.455825,8.622555
-19.864752,-29.955825,8.622555
-19.864752,-28.455825,8.622555
-19.864752,-26.955825,8.622555
-19.864752,-25.455825,8.622555
-19.864752,-36.809585,9.971278
-19.864752,-35.309585,9.971278
-19.864752,-33.809585,9.971278
-19.864752,-32.309585,9.971278
-19.864752,-30.809585,9.971278
-19.864752,-29.309585,9.971278
-19.864752,-27.809585,9.971278
-19.864752,-26.309585,9.971278
-19.864752,-37.883318,11.320000
-19.864752,-36.383318,11.320000
-19.864752,-34.883318,11.320000
-19.864752,-33.383318,11.320000
-19.864752,-31.883318,11.320000
-19.864752,-30.383318,11.320000
-19.864752,-28.883318,11.320000
-19.864752,-27.383318,11.320000
-19.864752,-39.092883,12.668722
-19.864752,-37.592883,12.668722
-19.864752,-36.092883,12.668722
-19.864752,-34.592883,12.668722
-19.864752,-33.092883,12.668722
-19.864752,-31.592883,12.668722
-19.864752,-30.092883,12.668722
-19.864752,-28.592883,12.668722
-19.864752,-40.300230,14.017445
-19.864752,-38.800230,14.017445
-19.864752,-37.300230,14.017445
-19.864752,-35.800230,14.017445
-19.864752,-34.300230,14.017445
-19.864752,-32.800230,14.017445
-19.864752,-31.300230,14.017445
-19.864752,-41.313391,15.366167
-19.864752,-39.813391,15.366167
-19.864752,-38.313391,15.366167
-19.864752,-36.813391,15.366167
-19.864752,-35.313391,15.366167
-19.864752,-33.813391,15.366167
-19.864752,-32.313391,15.366167
-19.864752,-41.886485,16.714890
-19.864752,-40.386485,16.714890
-19.864752,-38.886485,16.714890
-19.864752,-37.386485,16.714890
-19.864752,-35.886485,16.714890
-19.864752,-34.386485,16.714890
-19.864752,-41.719720,18.063612
-19.864752,-40.219720,18.063612
-19.864752,-38.719720,18.063612
-19.864752,-37.219720,18.063612
-19.864752,-40.459385,19.412334
-19.864752,-38.959385,19.412334
-19.864752,-37.459385,19.412334
-19.603768,-33.485117,0.531359
-19.603768,-31.985117,0.531359
-19.603768,-30.485117,0.531359
-19.603768,-28.985117,0.531359
-19.603768,-27.485117,0.531359
-19.603768,-25.985117,0.531359
-19.603768,-24.485117,0.531359
-19.603768,-34.263202,1.888802
-19.603768,-32.763202,1.888802
-19.603768,-31.263202,1.888802
-19.603768,-29.763202,1.888802
-19.603768,-28.263202,1.888802
-19.603768,-26.763202,1.888802
-19.603768,-25.263202,1.888802
-19.603768,-34.628094,3.246244
-19.603768,-33.128094,3.246244
-19.603768,-31.628094,3.246244
-19.603768,-30.128094,3.246244
-19.603768,-28.628094,3.246244
-19.603768,-27.128094,3.246244
-19.603768,-25.628094,3.246244
-19.603768,-24.128094,3.246244
-19.603768,-34.823443,4.603687
-19.603768,-33.323443,4.603687
-19.603768,-31.823443,4.603687
-19.603768,-30.323443,4.603687
-19.603768,-28.823443,4.603687
-19.603768,-27.323443,4.603687
-19.603768,-25.823443,4.603687
-19.603768,-24.323443,4.603687
-19.603768,-35.037576,5.961129
-19.603768,-33.537576,5.961129
-19.603768,-32.037576,5.961129
-19.603768,-30.537576,5.961129
-19.603768,-29.037576,5.961129
-19.603768,-27.537576,5.961129
-19.603768,-26.037576,5.961129
-19.603768,-24.537576,5.961129
-19.603768,-35.403498,7.318572
-19.603768,-33.903498,7.318572
-19.603768,-32.403498,7.318572
-19.603768,-30.903498,7.318572
-19.603768,-29.403498,7.318572
-19.603768,-27.903498,7.318572
-19.603768,-26.403498,7.318572
-19.603768,-24.903498,7.318572
-19.603768,-35.998891,8.676014
-19.603768,-34.498891,8.676014
-19.603768,-32.998891,8.676014
-19.603768,-31.498891,8.676014
-19.603768,-29.998891,8.676014
-19.603768,-28.498891,8.676014
-19.603768,-26.998891,8.676014
-19.603768,-25.498891,8.676014
-19.603768,-36.846117,10.033457
-19.603768,-35.346117,10.033457
-19.603768,-33.846117,10.033457
-19.603768,-32.346117,10.033457
-19.603768,-30.846117,10.033457
-19.603768,-29.346117,10.033457
-19.603768,-27.846117,10.033457
-19.603768,-26.346117,10.033457
-19.603768,-37.912216,11.390899
-19.603768,-36.412216,11.390899
-19.603768,-34.912216,11.390899
-19.603768,-33.412216,11.390899
-19.603768,-31.912216,11.390899
-19.603768,-30.412216,11.390899
-19.603768,-28.912216,11.390899
-19.603768,-27.412216,11.390899
-19.603768,-39.108904,12.748342
-19.603768,-37.608904,12.748342
-19.603768,-36.108904,12.748342
-19.603768,-34.608904,12.748342
-19.603768,-33.108904,12.748342
-19.603768,-31.608904,12.748342
-19.603768,-30.108904,12.748342
-19.603768,-28.608904,12.748342
-19.603768,-40.292579,14.105784
-19.603768,-38.792579,14.105784
-19.603768,-37.292579,14.105784
-19.603768,-35.792579,14.105784
-19.603768,-34.292579,14.105784
-19.603768,-32.792579,14.105784
-19.603768,-31.292579,14.105784
-19.603768,-41.264314,15.463227
-19.603768,-39.764314,15.463227
-19.603768,-38.264314,15.463227
-19.603768,-36.764314,15.463227
-19.603768,-35.264314,15.463227
-19.603768,-33.764314,15.463227
-19.603768,-32.264314,15.463227
-19.603768,-41.769861,16.820669
-19.603768,-40.269861,16.820669
-19.603768,-38.769861,16.820669
-19.603768,-37.269861,16.820669
-19.603768,-35.769861,16.820669
-19.603768,-34.269861,16.820669
-19.603768,-41.499650,18.178112
-19.603768,-39.999650,18.178112
-19.603768,-38.499650,18.178112
-19.603768,-36.999650,18.178112
-19.603768,-40.088790,19.535554
-19.603768,-38.588790,19.535554
-19.603768,-37.088790,19.535554
-18.588833,-33.949723,0.534551
-18.588833,-32.449723,0.534551
-18.588833,-30.949723,0.534551
-18.588833,-29.449723,0.534551
-18.588833,-27.949723,0.534551
-18.588833,-26.449723,0.534551
-18.588833,-24.949723,0.534551
-18.588833,-34.684467,1.918558
-18.588833,-33.184467,1.918558
-18.588833,-31.684467,1.918558
-18.588833,-30.184467,1.918558
-18.588833,-28.684467,1.918558
-18.588833,-27.184467,1.918558
-18.588833,-25.684467,1.918558
-18.588833,-24.184467,1.918558
-18.588833,-34.984641,3.302565
-18.588833,-33.484641,3.302565
-18.588833,-31.984641,3.302565
-18.588833,-30.484641,3.302565
-18.588833,-28.984641,3.302565
-18.588833,-27.484641,3.302565
-18.588833,-25.984641,3.302565
-18.588833,-24.484641,3.302565
-18.588833,-35.107487,4.686571
-18.588833,-33.607487,4.686571
-18.588833,-32.107487,4.686571
-18.588833,-30.607487,4.686571
-18.588833,-29.107487,4.686571
-18.588833,-27.607487,4.686571
-18.588833,-26.107487,4.686571
-18.588833,-24.607487,4.686571
-18.588833,-35.250469,6.070578
-18.588833,-33.750469,6.070578
-18.588833,-32.250469,6.070578
-18.588833,-30.750469,6.070578
-18.588833,-29.250469,6.070578
-18.588833,-27.750469,6.070578
-18.588833,-26.250469,6.070578
-18.588833,-24.750469,6.070578
-18.588833,-23.250469,6.070578
-18.588833,-35.551267,7.454584
-18.588833,-34.051267,7.454584
-18.588833,-32.551267,7.454584
-18.588833,-31.051267,7.454584
-18.588833,-29.551267,7.454584
-18.588833,-28.051267,7.454584
-18.588833,-26.551267,7.454584
-18.588833,-25.051267,7.454584
-18.588833,-23.551267,7.454584
-18.588833,-36.087781,8.838591
-18.588833,-34.587781,8.838591
-18.588833,-33.087781,8.838591
-18.588833,-31.587781,8.838591
-18.588833,-30.087781,8.838591
-18.588833,-28.587781,8.838591
-18.588833,-27.087781,8.838591
-18.588833,-25.587781,8.838591
-18.588833,-24.087781,8.838591
-18.588833,-36.878131,10.222597
-18.588833,-35.378131,10.222597
-18.588833,-33.878131,10.222597
-18.588833,-32.378131,10.222597
-18.588833,-30.878131,10.222597
-18.588833,-29.378131,10.222597
-18.588833,-27.878131,10.222597
-18.588833,-26.378131,10.222597
-18.588833,-37.880654,11.606604
-18.588833,-36.380654,11.606604
-18.588833,-34.880654,11.606604
-18.588833,-33.380654,11.606604
-18.588833,-31.880654,11.606604
-18.588833,-30.380654,11.606604
-18.588833,-28.880654,11.606604
-18.588833,-27.380654,11.606604
-18.588833,-38.993909,12.990611
-18.588833,-37.493909,12.990611
-18.588833,-35.993909,12.990611
-18.588833,-34.493909,12.990611
-18.588833,-32.993909,12.990611
-18.588833,-31.493909,12.990611
-18.588833,-29.993909,12.990611
-18.588833,-28.493909,12.990611
-18.588833,-40.056670,14.374617
-18.588833,-38.556670,14.374617
-18.588833,-37.056670,14.374617
-18.588833,-35.556670,14.374617
-18.588833,-34.056670,14.374617
-18.588833,-32.556670,14.374617
-18.588833,-31.056670,14.374617
-18.588833,-40.847933,15.758624
-18.588833,-39.347933,15.758624
-18.588833,-37.847933,15.758624
-18.588833,-36.347933,15.758624
-18.588833,-34.847933,15.758624
-18.588833,-33.347933,15.758624
-18.588833,-31.847933,15.758624
-18.588833,-41.086911,17.142630
-18.588833,-39.586911,17.142630
-18.588833,-38.086911,17.142630
-18.588833,-36.586911,17.142630
-18.588833,-35.086911,17.142630
-18.588833,-33.586911,17.142630
-18.588833,-40.433039,18.526637
-18.588833,-38.933039,18.526637
-18.588833,-37.433039,18.526637
-18.588833,-35.933039,18.526637
-18.588833,-38.485967,19.910644
-18.588833,-36.985967,19.910644
-17.805882,-34.326457,0.535537
-17.805882,-32.826457,0.535537
-17.805882,-31.326457,0.535537
-17.805882,-29.826457,0.535537
-17.805882,-28.326457,0.535537
-17.805882,-26.826457,0.535537
-17.805882,-25.326457,0.535537
-17.805882,-35.014505,1.931091
-17.805882,-33.514505,1.931091
-17.805882,-32.014505,1.931091
-17.805882,-30.514505,1.931091
-17.805882,-29.014505,1.931091
-17.805882,-27.514505,1.931091
-17.805882,-26.014505,1.931091
-17.805882,-24.514505,1.931091
-17.805882,-35.253257,3.326645
-17.805882,-33.753257,3.326645
-17.805882,-32.253257,3.326645
-17.805882,-30.753257,3.326645
-17.805882,-29.253257,3.326645
-17.805882,-27.753257,3.326645
-17.805882,-26.253257,3.326645
-17.805882,-24.753257,3.326645
-17.805882,-35.306324,4.722199
-17.805882,-33.806324,4.722199
-17.805882,-32.306324,4.722199
-17.805882,-30.806324,4.722199
-17.805882,-29.306324,4.722199
-17.805882,-27.806324,4.722199
-17.805882,-26.306324,4.722199
-17.805882,-24.806324,4.722199
-17.805882,-23.306324,4.722199
-17.805882,-35.375518,6.117753
-17.805882,-33.875518,6.117753
-17.805882,-32.375518,6.117753
-17.805882,-30.875518,6.117753
-17.805882,-29.375518,6.117753
-17.805882,-27.875518,6.117753
-17.805882,-26.375518,6.117753
-17.805882,-24.875518,6.117753
-17.805882,-23.375518,6.117753
-17.805882,-35.600847,7.513306
-17.805882,-34.100847,7.513306
-17.805882,-32.600847,7.513306
-17.805882,-31.100847,7.513306
-17.805882,-29.600847,7.513306
-17.805882,-28.100847,7.513306
-17.805882,-26.600847,7.513306
-17.805882,-25.100847,7.513306
-17.805882,-23.600847,7.513306
-17.805882,-36.060519,8.908860
-17.805882,-34.560519,8.908860
-17.805882,-33.060519,8.908860
-17.805882,-31.560519,8.908860
-17.805882,-30.060519,8.908860
-17.805882,-28.560519,8.908860
-17.805882,-27.060519,8.908860
-17.805882,-25.560519,8.908860
-17.805882,-24.060519,8.908860
-17.805882,-36.770941,10.304414
-17.805882,-35.270941,10.304414
-17.805882,-33.770941,10.304414
-17.805882,-32.270941,10.304414
-17.805882,-30.770941,10.304414
-17.805882,-29.270941,10.304414
-17.805882,-27.770941,10.304414
-17.805882,-26.270941,10.304414
-17.805882,-37.686719,11.699968
-17.805882,-36.186719,11.699968
-17.805882,-34.686719,11.699968
-17.805882,-33.186719,11.699968
-17.805882,-31.686719,11.699968
-17.805882,-30.186719,11.699968
-17.805882,-28.686719,11.699968
-17.805882,-27.186719,11.699968
-17.805882,-38.700656,13.095522
-17.805882,-37.200656,13.095522
-17.805882,-35.700656,13.095522
-17.805882,-34.200656,13.095522
-17.805882,-32.700656,13.095522
-17.805882,-31.200656,13.095522
-17.805882,-29.700656,13.095522
-17.805882,-28.200656,13.095522
-17.805882,-39.643755,14.491076
-17.805882,-38.143755,14.491076
-17.805882,-36.643755,14.491076
-17.805882,-35.143755,14.491076
-17.805882,-33.643755,14.491076
-17.805882,-32.143755,14.491076
-17.805882,-30.643755,14.491076
-17.805882,-40.285219,15.886630
-17.805882,-38.785219,15.886630
-17.805882,-37.285219,15.886630
-17.805882,-35.785219,15.886630
-17.805882,-34.285219,15.886630
-17.805882,-32.785219,15.886630
-17.805882,-40.332448,17.282183
-17.805882,-38.832448,17.282183
-17.805882,-37.332448,17.282183
-17.805882,-35.832448,17.282183
-17.805882,-34.332448,17.282183
-17.805882,-39.431040,18.677737
-17.805882,-37.931040,18.677737
-17.805882,-36.431040,18.677737
-17.805882,-34.931040,18.677737
-17.805882,-37.164795,20.073291
-17.805882,-35.664795,20.073291
-16.732950,-34.856872,0.534688
-16.732950,-33.356872,0.534688
-16.732950,-31.856872,0.534688
-16.732950,-30.356872,0.534688
-16.732950,-28.856872,0.534688
-16.732950,-27.356872,0.534688
-16.732950,-25.856872,0.534688
-16.732950,-35.462000,1.931577
-16.732950,-33.962000,1.931577
-16.732950,-32.462000,1.931577
-16.732950,-30.962000,1.931577
-16.732950,-29.462000,1.931577
-16.732950,-27.962000,1.931577
-16.732950,-26.462000,1.931577
-16.732950,-24.962000,1.931577
-16.732950,-35.601413,3.328467
-16.732950,-34.101413,3.328467
-16.732950,-32.601413,3.328467
-16.732950,-31.101413,3.328467
-16.732950,-29.601413,3.328467
-16.732950,-28.101413,3.328467
-16.732950,-26.601413,3.328467
-16.732950,-25.101413,3.328467
-16.732950,-35.540372,4.725357
-16.732950,-34.040372,4.725357
-16.732950,-32.540372,4.725357
-16.732950,-31.040372,4.725357
-16.732950,-29.540372,4.725357
-16.732950,-28.040372,4.725357
-16.732950,-26.540372,4.725357
-16.732950,-25.040372,4.725357
-16.732950,-23.540372,4.725357
-16.732950,-35.482099,6.122247
-16.732950,-33.982099,6.122247
-16.732950,-32.482099,6.122247
-16.732950,-30.982099,6.122247
-16.732950,-29.482099,6.122247
-16.732950,-27.982099,6.122247
-16.732950,-26.482099,6.122247
-16.732950,-24.982099,6.122247
-16.732950,-23.482099,6.122247
-16.732950,-35.567781,7.519137
-16.732950,-34.067781,7.519137
-16.732950,-32.567781,7.519137
-16.732950,-31.067781,7.519137
-16.732950,-29.567781,7.519137
-16.732950,-28.067781,7.519137
-16.732950,-26.567781,7.519137
-16.732950,-25.067781,7.519137
-16.732950,-23.567781,7.519137
-16.732950,-35.876563,8.916027
-16.732950,-34.376563,8.916027
-16.732950,-32.876563,8.916027
-16.732950,-31.376563,8.916027
-16.732950,-29.876563,8.916027
-16.732950,-28.376563,8.916027
-16.732950,-26.876563,8.916027
-16.732950,-25.376563,8.916027
-16.732950,-23.876563,8.916027
-16.732950,-36.425555,10.312916
-16.732950,-34.925555,10.312916
-16.732950,-33.425555,10.312916
-16.732950,-31.925555,10.312916
-16.732950,-30.425555,10.312916
-16.732950,-28.925555,10.312916
-16.732950,-27.425555,10.312916
-16.732950,-25.925555,10.312916
-16.732950,-37.169826,11.709806
-16.732950,-35.669826,11.709806
-16.732950,-34.169826,11.709806
-16.732950,-32.669826,11.709806
-16.732950,-31.169826,11.709806
-16.732950,-29.669826,11.709806
-16.732950,-28.169826,11.709806
-16.732950,-26.669826,11.709806
-16.732950,-38.002410,13.106696
-16.732950,-36.502410,13.106696
-16.732950,-35.002410,13.106696
-16.732950,-33.502410,13.106696
-16.732950,-32.002410,13.106696
-16.732950,-30.502410,13.106696
-16.732950,-29.002410,13.106696
-16.732950,-38.754298,14.503586
-16.732950,-37.254298,14.503586
-16.732950,-35.754298,14.503586
-16.732950,-34.254298,14.503586
-16.732950,-32.754298,14.503586
-16.732950,-31.254298,14.503586
-16.732950,-29.754298,14.503586
-16.732950,-39.194449,15.900476
-16.732950,-37.694449,15.900476
-16.732950,-36.194449,15.900476
-16.732950,-34.694449,15.900476
-16.732950,-33.194449,15.900476
-16.732950,-31.694449,15.900476
-16.732950,-39.029778,17.297366
-16.732950,-37.529778,17.297366
-16.732950,-36.029778,17.297366
-16.732950,-34.529778,17.297366
-16.732950,-33.029778,17.297366
-16.732950,-37.905165,18.694255
-16.732950,-36.405165,18.694255
-16.732950,-34.905165,18.694255
-16.732950,-33.405165,18.694255
-16.732950,-35.403450,20.091145
-16.732950,-33.903450,20.091145
-15.718015,-35.359856,0.531624
-15.718015,-33.859856,0.531624
-15.718015,-32.359856,0.531624
-15.718015,-30.859856,0.531624
-15.718015,-29.359856,0.531624
-15.718015,-27.859856,0.531624
-15.718015,-26.359856,0.531624
-15.718015,-35.867391,1.912508
-15.718015,-34.367391,1.912508
-15.718015,-32.867391,1.912508
-15.718015,-31.367391,1.912508
-15.718015,-29.867391,1.912508
-15.718015,-28.367391,1.912508
-15.718015,-26.867391,1.912508
-15.718015,-25.367391,1.912508
-15.718015,-35.899499,3.293391
-15.718015,-34.399499,3.293391
-15.718015,-32.899499,3.293391
-15.718015,-31.399499,3.293391
-15.718015,-29.899499,3.293391
-15.718015,-28.399499,3.293391
-15.718015,-26.899499,3.293391
-15.718015,-25.399499,3.293391
-15.718015,-23.899499,3.293391
-15.718015,-35.714452,4.674274
-15.718015,-34.214452,4.674274
-15.718015,-32.714452,4.674274
-15.718015,-31.214452,4.674274
-15.718015,-29.714452,4.674274
-15.718015,-28.214452,4.674274
-15.718015,-26.714452,4.674274
-15.718015,-25.214452,4.674274
-15.718015,-23.714452,4.674274
-15.718015,-35.511274,6.055157
-15.718015,-34.011274,6.055157
-15.718015,-32.511274,6.055157
-15.718015,-31.011274,6.055157
-15.718015,-29.511274,6.055157
-15.718015,-28.011274,6.055157
-15.718015,-26.511274,6.055157
-15.718015,-25.011274,6.055157
-15.718015,-23.511274,6.055157
-15.718015,-35.429752,7.436040
-15.718015,-33.929752,7.436040
-15.718015,-32.429752,7.436040
-15.718015,-30.929752,7.436040
-15.718015,-29.429752,7.436040
-15.718015,-27.929752,7.436040
-15.718015,-26.429752,7.436040
-15.718015,-24.929752,7.436040
-15.718015,-23.429752,7.436040
-15.718015,-35.550425,8.816923
-15.718015,-34.050425,8.816923
-15.718015,-32.550425,8.816923
-15.718015,-31.050425,8.816923
-15.718015,-29.550425,8.816923
-15.718015,-28.050425,8.816923
-15.718015,-26.550425,8.816923
-15.718015,-25.050425,8.816923
-15.718015,-35.894591,10.197806
-15.718015,-34.394591,10.197806
-15.718015,-32.894591,10.197806
-15.718015,-31.394591,10.197806
-15.718015,-29.894591,10.197806
-15.718015,-28.394591,10.197806
-15.718015,-26.894591,10.197806
-15.718015,-25.394591,10.197806
-15.718015,-36.424304,11.578689
-15.718015,-34.924304,11.578689
-15.718015,-33.424304,11.578689
-15.718015,-31.924304,11.578689
-15.718015,-30.424304,11.578689
-15.718015,-28.924304,11.578689
-15.718015,-27.424304,11.578689
-15.718015,-25.924304,11.578689
-15.718015,-37.042375,12.959572
-15.718015,-35.542375,12.959572
-15.718015,-34.042375,12.959572
-15.718015,-32.542375,12.959572
-15.718015,-31.042375,12.959572
-15.718015,-29.542375,12.959572
-15.718015,-28.042375,12.959572
-15.718015,-37.592374,14.340455
-15.718015,-36.092374,14.340455
-15.718015,-34.592374,14.340455
-15.718015,-33.092374,14.340455
-15.718015,-31.592374,14.340455
-15.718015,-30.092374,14.340455
-15.718015,-28.592374,14.340455
-15.718015,-37.858623,15.721338
-15.718015,-36.358623,15.721338
-15.718015,-34.858623,15.721338
-15.718015,-33.358623,15.721338
-15.718015,-31.858623,15.721338
-15.718015,-30.358623,15.721338
-15.718015,-37.566206,17.102221
-15.718015,-36.066206,17.102221
-15.718015,-34.566206,17.102221
-15.718015,-33.066206,17.102221
-15.718015,-31.566206,17.102221
-15.718015,-36.380960,18.483104
-15.718015,-34.880960,18.483104
-15.718015,-33.380960,18.483104
-15.718015,-33.909481,19.863987
-15.718015,-32.409481,19.863987
-14.761075,-35.820920,0.526990
-14.761075,-34.320920,0.526990
-14.761075,-32.820920,0.526990
-14.761075,-31.320920,0.526990
-14.761075,-29.820920,0.526990
-14.761075,-28.320920,0.526990
-14.761075,-26.820920,0.526990
-14.761075,-36.221598,1.875774
-14.761075,-34.721598,1.875774
-14.761075,-33.221598,1.875774
-14.761075,-31.721598,1.875774
-14.761075,-30.221598,1.875774
-14.761075,-28.721598,1.875774
-14.761075,-27.221598,1.875774
-14.761075,-25.721598,1.875774
-14.761075,-36.145043,3.224557
-14.761075,-34.645043,3.224557
-14.761075,-33.145043,3.224557
-14.761075,-31.645043,3.224557
-14.761075,-30.145043,3.224557
-14.761075,-28.645043,3.224557
-14.761075,-27.145043,3.224557
-14.761075,-25.645043,3.224557
-14.761075,-35.834796,4.573341
-14.761075,-34.334796,4.573341
-14.761075,-32.834796,4.573341
-14.761075,-31.334796,4.573341
-14.761075,-29.834796,4.573341
-14.761075,-28.334796,4.573341
-14.761075,-26.834796,4.573341
-14.761075,-25.334796,4.573341
-14.761075,-23.834796,4.573341
-14.761075,-35.480476,5.922124
-14.761075,-33.980476,5.922124
-14.761075,-32.480476,5.922124
-14.761075,-30.980476,5.922124
-14.761075,-29.480476,5.922124
-14.761075,-27.980476,5.922124
-14.761075,-26.480476,5.922124
-14.761075,-24.980476,5.922124
-14.761075,-23.480476,5.922124
-14.761075,-35.217778,7.270908
-14.761075,-33.717778,7.270908
-14.761075,-32.217778,7.270908
-14.761075,-30.717778,7.270908
-14.761075,-29.217778,7.270908
-14.761075,-27.717778,7.270908
-14.761075,-26.217778,7.270908
-14.761075,-24.717778,7.270908
-14.761075,-35.128474,8.619691
-14.761075,-33.628474,8.619691
-14.761075,-32.128474,8.619691
-14.761075,-30.628474,8.619691
-14.761075,-29.128474,8.619691
-14.761075,-27.628474,8.619691
-14.761075,-26.128474,8.619691
-14.761075,-24.628474,8.619691
-14.761075,-35.240411,9.968475
-14.761075,-33.740411,9.968475
-14.761075,-32.240411,9.968475
-14.761075,-30.740411,9.968475
-14.761075,-29.240411,9.968475
-14.761075,-27.740411,9.968475
-14.761075,-26.240411,9.968475
-14.761075,-24.740411,9.968475
-14.761075,-35.527512,11.317258
-14.761075,-34.027512,11.317258
-14.761075,-32.527512,11.317258
-14.761075,-31.027512,11.317258
-14.761075,-29.527512,11.317258
-14.761075,-28.027512,11.317258
-14.761075,-26.527512,11.317258
-14.761075,-35.909779,12.666042
-14.761075,-34.409779,12.666042
-14.761075,-32.909779,12.666042
-14.761075,-31.409779,12.666042
-14.761075,-29.909779,12.666042
-14.761075,-28.409779,12.666042
-14.761075,-26.909779,12.666042
-14.761075,-36.253287,14.014825
-14.761075,-34.753287,14.014825
-14.761075,-33.253287,14.014825
-14.761075,-31.753287,14.014825
-14.761075,-30.253287,14.014825
-14.761075,-28.753287,14.014825
-14.761075,-36.370188,15.363609
-14.761075,-34.870188,15.363609
-14.761075,-33.370188,15.363609
-14.761075,-31.870188,15.363609
-14.761075,-30.370188,15.363609
-14.761075,-36.018713,16.712392
-14.761075,-34.518713,16.712392
-14.761075,-33.018713,16.712392
-14.761075,-31.518713,16.712392
-14.761075,-34.903166,18.061175
-14.761075,-33.403166,18.061175
-14.761075,-31.903166,18.061175
-14.761075,-32.673929,19.409959
-13.833134,-36.242004,0.521284
-13.833134,-34.742004,0.521284
-13.833134,-33.242004,0.521284
-13.833134,-31.742004,0.521284
-13.833134,-30.242004,0.521284
-13.833134,-28.742004,0.521284
-13.833134,-27.242004,0.521284
-13.833134,-36.528601,1.821875
-13.833134,-35.028601,1.821875
-13.833134,-33.528601,1.821875
-13.833134,-32.028601,1.821875
-13.833134,-30.528601,1.821875
-13.833134,-29.028601,1.821875
-13.833134,-27.528601,1.821875
-13.833134,-26.028601,1.821875
-13.833134,-36.345253,3.122466
-13.833134,-34.845253,3.122466
-13.833134,-33.345253,3.122466
-13.833134,-31.845253,3.122466
-13.833134,-30.345253,3.122466
-13.833134,-28.845253,3.122466
-13.833134,-27.345253,3.122466
-13.833134,-25.845253,3.122466
-13.833134,-35.913773,4.423058
-13.833134,-34.413773,4.423058
-13.833134,-32.913773,4.423058
-13.833134,-31.413773,4.423058
-13.833134,-29.913773,4.423058
-13.833134,-28.413773,4.423058
-13.833134,-26.913773,4.423058
-13.833134,-25.413773,4.423058
-13.833134,-35.409354,5.723649
-13.833134,-33.909354,5.723649
-13.833134,-32.409354,5.723649
-13.833134,-30.909354,5.723649
-13.833134,-29.409354,5.723649
-13.833134,-27.909354,5.723649
-13.833134,-26.409354,5.723649
-13.833134,-24.909354,5.723649
-13.833134,-34.960569,7.024241
-13.833134,-33.460569,7.024241
-13.833134,-31.960569,7.024241
-13.833134,-30.460569,7.024241
-13.833134,-28.960569,7.024241
-13.833134,-27.460569,7.024241
-13.833134,-25.960569,7.024241
-13.833134,-24.460569,7.024241
-13.833134,-34.649369,8.324832
-13.833134,-33.149369,8.324832
-13.833134,-31.649369,8.324832
-13.833134,-30.149369,8.324832
-13.833134,-28.649369,8.324832
-13.833134,-27.149369,8.324832
-13.833134,-25.649369,8.324832
-13.833134,-24.149369,8.324832
-13.833134,-34.511086,9.625424
-13.833134,-33.011086,9.625424
-13.833134,-31.511086,9.625424
-13.833134,-30.011086,9.625424
-13.833134,-28.511086,9.625424
-13.833134,-27.011086,9.625424
-13.833134,-25.511086,9.625424
-13.833134,-34.534433,10.926015
-13.833134,-33.034433,10.926015
-13.833134,-31.534433,10.926015
-13.833134,-30.034433,10.926015
-13.833134,-28.534433,10.926015
-13.833134,-27.034433,10.926015
-13.833134,-25.534433,10.926015
-13.833134,-34.661500,12.226607
-13.833134,-33.161500,12.226607
-13.833134,-31.661500,12.226607
-13.833134,-30.161500,12.226607
-13.833134,-28.661500,12.226607
-13.833134,-27.161500,12.226607
-13.833134,-34.787760,13.527198
-13.833134,-33.287760,13.527198
-13.833134,-31.787760,13.527198
-13.833134,-30.287760,13.527198
-13.833134,-28.787760,13.527198
-13.833134,-34.762063,14.827790
-13.833134,-33.262063,14.827790
-13.833134,-31.762063,14.827790
-13.833134,-30.262063,14.827790
-13.833134,-28.762063,14.827790
-13.833134,-34.386640,16.128381
-13.833134,-32.886640,16.128381
-13.833134,-31.386640,16.128381
-13.833134,-29.886640,16.128381
-13.833134,-33.417101,17.428972
-13.833134,-31.917101,17.428972
-13.833134,-30.417101,17.428972
-13.833134,-31.562438,18.729564
-13.485156,-36.390408,0.518943
-13.485156,-34.890408,0.518943
-13.485156,-33.390408,0.518943
-13.485156,-31.890408,0.518943
-13.485156,-30.390408,0.518943
-13.485156,-28.890408,0.518943
-13.485156,-27.390408,0.518943
-13.485156,-36.632446,1.796901
-13.485156,-35.132446,1.796901
-13.485156,-33.632446,1.796901
-13.485156,-32.132446,1.796901
-13.485156,-30.632446,1.796901
-13.485156,-29.132446,1.796901
-13.485156,-27.632446,1.796901
-13.485156,-26.132446,1.796901
-13.485156,-36.410025,3.074860
-13.485156,-34.910025,3.074860
-13.485156,-33.410025,3.074860
-13.485156,-31.910025,3.074860
-13.485156,-30.410025,3.074860
-13.485156,-28.910025,3.074860
-13.485156,-27.410025,3.074860
-13.485156,-25.910025,3.074860
-13.485156,-35.935047,4.352819
-13.485156,-34.435047,4.352819
-13.485156,-32.935047,4.352819
-13.485156,-31.435047,4.352819
-13.485156,-29.935047,4.352819
-13.485156,-28.435047,4.352819
-13.485156,-26.935047,4.352819
-13.485156,-25.435047,4.352819
-13.485156,-35.375956,5.630778
-13.485156,-33.875956,5.630778
-13.485156,-32.375956,5.630778
-13.485156,-30.875956,5.630778
-13.485156,-29.375956,5.630778
-13.485156,-27.875956,5.630778
-13.485156,-26.375956,5.630778
-13.485156,-24.875956,5.630778
-13.485156,-34.857735,6.908737
-13.485156,-33.357735,6.908737
-13.485156,-31.857735,6.908737
-13.485156,-30.357735,6.908737
-13.485156,-28.857735,6.908737
-13.485156,-27.357735,6.908737
-13.485156,-25.857735,6.908737
-13.485156,-24.357735,6.908737
-13.485156,-34.461910,8.186696
-13.485156,-32.961910,8.186696
-13.485156,-31.461910,8.186696
-13.485156,-29.961910,8.186696
-13.485156,-28.461910,8.186696
-13.485156,-26.961910,8.186696
-13.485156,-25.461910,8.186696
-13.485156,-34.226547,9.464654
-13.485156,-32.726547,9.464654
-13.485156,-31.226547,9.464654
-13.485156,-29.726547,9.464654
-13.485156,-28.226547,9.464654
-13.485156,-26.726547,9.464654
-13.485156,-25.226547,9.464654
-13.485156,-34.146253,10.742613
-13.485156,-32.646253,10.742613
-13.485156,-31.146253,10.742613
-13.485156,-29.646253,10.742613
-13.485156,-28.146253,10.742613
-13.485156,-26.646253,10.742613
-13.485156,-34.172177,12.020572
-13.485156,-32.672177,12.020572
-13.485156,-31.172177,12.020572
-13.485156,-29.672177,12.020572
-13.485156,-28.172177,12.020572
-13.485156,-26.672177,12.020572
-13.485156,-34.212009,13.298531
-13.485156,-32.712009,13.298531
-13.485156,-31.212009,13.298531
-13.485156,-29.712009,13.298531
-13.485156,-28.212009,13.298531
-13.485156,-34.129980,14.576490
-13.485156,-32.629980,14.576490
-13.485156,-31.129980,14.576490
-13.485156,-29.629980,14.576490
-13.485156,-33.746862,15.854448
-13.485156,-32.246862,15.854448
-13.485156,-30.746862,15.854448
-13.485156,-29.246862,15.854448
-13.485156,-32.839969,17.132407
-13.485156,-31.339969,17.132407
-13.485156,-29.839969,17.132407
-13.485156,-31.143154,18.410366
-12.789199,-36.667198,0.514122
-12.789199,-35.167198,0.514122
-12.789199,-33.667198,0.514122
-12.789199,-32.167198,0.514122
-12.789199,-30.667198,0.514122
-12.789199,-29.167198,0.514122
-12.789199,-27.667198,0.514122
-12.789199,-36.818790,1.739060
-12.789199,-35.318790,1.739060
-12.789199,-33.818790,1.739060
-12.789199,-32.318790,1.739060
-12.789199,-30.818790,1.739060
-12.789199,-29.318790,1.739060
-12.789199,-27.818790,1.739060
-12.789199,-26.318790,1.739060
-12.789199,-36.522038,2.963998
-12.789199,-35.022038,2.963998
-12.789199,-33.522038,2.963998
-12.789199,-32.022038,2.963998
-12.789199,-30.522038,2.963998
-12.789199,-29.022038,2.963998
-12.789199,-27.522038,2.963998
-12.789199,-26.022038,2.963998
-12.789199,-35.966484,4.188936
-12.789199,-34.466484,4.188936
-12.789199,-32.966484,4.188936
-12.789199,-31.466484,4.188936
-12.789199,-29.966484,4.188936
-12.789199,-28.466484,4.188936
-12.789199,-26.966484,4.188936
-12.789199,-25.466484,4.188936
-12.789199,-35.304991,5.413874
-12.789199,-33.804991,5.413874
-12.789199,-32.304991,5.413874
-12.789199,-30.804991,5.413874
-12.789199,-29.304991,5.413874
-12.789199,-27.804991,5.413874
-12.789199,-26.304991,5.413874
-12.789199,-24.804991,5.413874
-12.789199,-34.653737,6.638811
-12.789199,-33.153737,6.638811
-12.789199,-31.653737,6.638811
-12.789199,-30.153737,6.638811
-12.789199,-28.653737,6.638811
-12.789199,-27.153737,6.638811
-12.789199,-25.653737,6.638811
-12.789199,-34.092218,7.863749
-12.789199,-32.592218,7.863749
-12.789199,-31.092218,7.863749
-12.789199,-29.592218,7.863749
-12.789199,-28.092218,7.863749
-12.789199,-26.592218,7.863749
-12.789199,-25.092218,7.863749
-12.789199,-33.663246,9.088687
-12.789199,-32.163246,9.088687
-12.789199,-30.663246,9.088687
-12.789199,-29.163246,9.088687
-12.789199,-27.663246,9.088687
-12.789199,-26.163246,9.088687
-12.789199,-24.663246,9.088687
-12.789199,-33.372950,10.313625
-12.789199,-31.872950,10.313625
-12.789199,-30.372950,10.313625
-12.789199,-28.872950,10.313625
-12.789199,-27.372950,10.313625
-12.789199,-25.872950,10.313625
-12.789199,-33.190775,11.538563
-12.789199,-31.690775,11.538563
-12.789199,-30.190775,11.538563
-12.789199,-28.690775,11.538563
-12.789199,-27.190775,11.538563
-12.789199,-33.049485,12.763500
-12.789199,-31.549485,12.763500
-12.789199,-30.049485,12.763500
-12.789199,-28.549485,12.763500
-12.789199,-27.049485,12.763500
-12.789199,-32.845159,13.988438
-12.789199,-31.345159,13.988438
-12.789199,-29.845159,13.988438
-12.789199,-28.345159,13.988438
-12.789199,-32.437193,15.213376
-12.789199,-30.937193,15.213376
-12.789199,-29.437193,15.213376
-12.789199,-31.648300,16.438314
-12.789199,-30.148300,16.438314
-12.789199,-30.264510,17.663252
-12.267233,-36.853981,0.510539
-12.267233,-35.353981,0.510539
-12.267233,-33.853981,0.510539
-12.267233,-32.353981,0.510539
-12.267233,-30.853981,0.510539
-12.267233,-29.353981,0.510539
-12.267233,-27.853981,0.510539
-12.267233,-36.937878,1.688746
-12.267233,-35.437878,1.688746
-12.267233,-33.937878,1.688746
-12.267233,-32.437878,1.688746
-12.267233,-30.937878,1.688746
-12.267233,-29.437878,1.688746
-12.267233,-27.937878,1.688746
-12.267233,-36.590396,2.866953
-12.267233,-35.090396,2.866953
-12.267233,-33.590396,2.866953
-12.267233,-32.090396,2.866953
-12.267233,-30.590396,2.866953
-12.267233,-29.090396,2.866953
-12.267233,-27.590396,2.866953
-12.267233,-26.090396,2.866953
-12.267233,-35.982442,4.045161
-12.267233,-34.482442,4.045161
-12.267233,-32.982442,4.045161
-12.267233,-31.482442,4.045161
-12.267233,-29.982442,4.045161
-12.267233,-28.482442,4.045161
-12.267233,-26.982442,4.045161
-12.267233,-25.482442,4.045161
-12.267233,-35.253525,5.223368
-12.267233,-33.753525,5.223368
-12.267233,-32.253525,5.223368
-12.267233,-30.753525,5.223368
-12.267233,-29.253525,5.223368
-12.267233,-27.753525,5.223368
-12.267233,-26.253525,5.223368
-12.267233,-34.511758,6.401575
-12.267233,-33.011758,6.401575
-12.267233,-31.511758,6.401575
-12.267233,-30.011758,6.401575
-12.267233,-28.511758,6.401575
-12.267233,-27.011758,6.401575
-12.267233,-25.511758,6.401575
-12.267233,-33.833855,7.579782
-12.267233,-32.333855,7.579782
-12.267233,-30.833855,7.579782
-12.267233,-29.333855,7.579782
-12.267233,-27.833855,7.579782
-12.267233,-26.333855,7.579782
-12.267233,-24.833855,7.579782
-12.267233,-33.265134,8.757989
-12.267233,-31.765134,8.757989
-12.267233,-30.265134,8.757989
-12.267233,-28.765134,8.757989
-12.267233,-27.265134,8.757989
-12.267233,-25.765134,8.757989
-12.267233,-32.819514,9.936196
-12.267233,-31.319514,9.936196
-12.267233,-29.819514,9.936196
-12.267233,-28.319514,9.936196
-12.267233,-26.819514,9.936196
-12.267233,-25.319514,9.936196
-12.267233,-32.479517,11.114403
-12.267233,-30.979517,11.114403
-12.267233,-29.479517,11.114403
-12.267233,-27.979517,11.114403
-12.267233,-26.479517,11.114403
-12.267233,-32.196266,12.292610
-12.267233,-30.696266,12.292610
-12.267233,-29.196266,12.292610
-12.267233,-27.696266,12.292610
-12.267233,-31.889489,13.470817
-12.267233,-30.389489,13.470817
-12.267233,-28.889489,13.470817
-12.267233,-27.389489,13.470817
-12.267233,-31.447513,14.649024
-12.267233,-29.947513,14.649024
-12.267233,-28.447513,14.649024
-12.267233,-30.727269,15.827231
-12.267233,-29.227269,15.827231
-12.267233,-29.554292,17.005438
-22.436164,-32.418704,0.514461
-22.436164,-30.918704,0.514461
-22.436164,-29.418704,0.514461
-22.436164,-27.918704,0.514461
-22.436164,-26.418704,0.514461
-22.436164,-33.226728,1.745416
-22.436164,-31.726728,1.745416
-22.436164,-30.226728,1.745416
-22.436164,-28.726728,1.745416
-22.436164,-27.226728,1.745416
-22.436164,-25.726728,1.745416
-22.436164,-33.688245,2.976370
-22.436164,-32.188245,2.976370
-22.436164,-30.688245,2.976370
-22.436164,-29.188245,2.976370
-22.436164,-27.688245,2.976370
-22.436164,-26.188245,2.976370
-22.436164,-24.688245,2.976370
-22.436164,-33.989517,4.207325
-22.436164,-32.489517,4.207325
-22.436164,-30.989517,4.207325
-22.436164,-29.489517,4.207325
-22.436164,-27.989517,4.207325
-22.436164,-26.489517,4.207325
-22.436164,-24.989517,4.207325
-22.436164,-34.279400,5.438280
-22.436164,-32.779400,5.438280
-22.436164,-31.279400,5.438280
-22.436164,-29.779400,5.438280
-22.436164,-28.279400,5.438280
-22.436164,-26.779400,5.438280
-22.436164,-25.279400,5.438280
-22.436164,-34.669337,6.669234
-22.436164,-33.169337,6.669234
-22.436164,-31.669337,6.669234
-22.436164,-30.169337,6.669234
-22.436164,-28.669337,6.669234
-22.436164,-27.169337,6.669234
-22.436164,-25.669337,6.669234
-22.436164,-35.233365,7.900189
-22.436164,-33.733365,7.900189
-22.436164,-32.233365,7.900189
-22.436164,-30.733365,7.900189
-22.436164,-29.233365,7.900189
-22.436164,-27.733365,7.900189
-22.436164,-26.233365,7.900189
-22.436164,-24.733365,7.900189
-22.436164,-36.008110,9.131144
-22.436164,-34.508110,9.131144
-22.436164,-33.008110,9.131144
-22.436164,-31.508110,9.131144
-22.436164,-30.008110,9.131144
-22.436164,-28.508110,9.131144
-22.436164,-27.008110,9.131144
-22.436164,-25.508110,9.131144
-22.436164,-36.992789,10.362098
-22.436164,-35.492789,10.362098
-22.436164,-33.992789,10.362098
-22.436164,-32.492789,10.362098
-22.436164,-30.992789,10.362098
-22.436164,-29.492789,10.362098
-22.436164,-27.992789,10.362098
-22.436164,-38.149209,11.593053
-22.436164,-36.649209,11.593053
-22.436164,-35.149209,11.593053
-22.436164,-33.649209,11.593053
-22.436164,-32.149209,11.593053
-22.436164,-30.649209,11.593053
-22.436164,-29.149209,11.593053
-22.436164,-39.401771,12.824008
-22.436164,-37.901771,12.824008
-22.436164,-36.401771,12.824008
-22.436164,-34.901771,12.824008
-22.436164,-33.401771,12.824008
-22.436164,-31.901771,12.824008
-22.436164,-30.401771,12.824008
-22.436164,-40.637462,14.054962
-22.436164,-39.137462,14.054962
-22.436164,-37.637462,14.054962
-22.436164,-36.137462,14.054962
-22.436164,-34.637462,14.054962
-22.436164,-33.137462,14.054962
-22.436164,-41.705863,15.285917
-22.436164,-40.205863,15.285917
-22.436164,-38.705863,15.285917
-22.436164,-37.205863,15.285917
-22.436164,-35.705863,15.285917
-22.436164,-34.205863,15.285917
-22.436164,-42.419145,16.516871
-22.436164,-40.919145,16.516871
-22.436164,-39.419145,16.516871
-22.436164,-37.919145,16.516871
-22.436164,-36.419145,16.516871
-22.436164,-42.552069,17.747826
-22.436164,-41.052069,17.747826
-22.436164,-39.552069,17.747826
-22.436164,-38.052069,17.747826
-21.179577,-32.841960,0.522912
-21.179577,-31.341960,0.522912
-21.179577,-29.841960,0.522912
-21.179577,-28.341960,0.522912
-21.179577,-26.841960,0.522912
-21.179577,-25.341960,0.522912
-21.179577,-33.651598,1.817758
-21.179577,-32.151598,1.817758
-21.179577,-30.651598,1.817758
-21.179577,-29.151598,1.817758
-21.179577,-27.651598,1.817758
-21.179577,-26.151598,1.817758
-21.179577,-24.651598,1.817758
-21.179577,-34.084349,3.112603
-21.179577,-32.584349,3.112603
-21.179577,-31.084349,3.112603
-21.179577,-29.584349,3.112603
-21.179577,-28.084349,3.112603
-21.179577,-26.584349,3.112603
-21.179577,-25.084349,3.112603
-21.179577,-34.354201,4.407448
-21.179577,-32.854201,4.407448
-21.179577,-31.354201,4.407448
-21.179577,-29.854201,4.407448
-21.179577,-28.354201,4.407448
-21.179577,-26.854201,4.407448
-21.179577,-25.354201,4.407448
-21.179577,-23.854201,4.407448
-21.179577,-34.629342,5.702294
-21.179577,-33.129342,5.702294
-21.179577,-31.629342,5.702294
-21.179577,-30.129342,5.702294
-21.179577,-28.629342,5.702294
-21.179577,-27.129342,5.702294
-21.179577,-25.629342,5.702294
-21.179577,-24.129342,5.702294
-21.179577,-35.032157,6.997139
-21.179577,-33.532157,6.997139
-21.179577,-32.032157,6.997139
-21.179577,-30.532157,6.997139
-21.179577,-29.032157,6.997139
-21.179577,-27.532157,6.997139
-21.179577,-26.032157,6.997139
-21.179577,-24.532157,6.997139
-21.179577,-35.639230,8.291984
-21.179577,-34.139230,8.291984
-21.179577,-32.639230,8.291984
-21.179577,-31.139230,8.291984
-21.179577,-29.639230,8.291984
-21.179577,-28.139230,8.291984
-21.179577,-26.639230,8.291984
-21.179577,-25.139230,8.291984
-21.179577,-36.481342,9.586830
-21.179577,-34.981342,9.586830
-21.179577,-33.481342,9.586830
-21.179577,-31.981342,9.586830
-21.179577,-30.481342,9.586830
-21.179577,-28.981342,9.586830
-21.179577,-27.481342,9.586830
-21.179577,-25.981342,9.586830
-21.179577,-37.543473,10.881675
-21.179577,-36.043473,10.881675
-21.179577,-34.543473,10.881675
-21.179577,-33.043473,10.881675
-21.179577,-31.543473,10.881675
-21.179577,-30.043473,10.881675
-21.179577,-28.543473,10.881675
-21.179577,-27.043473,10.881675
-21.179577,-38.764801,12.176520
-21.179577,-37.264801,12.176520
-21.179577,-35.764801,12.176520
-21.179577,-34.264801,12.176520
-21.179577,-32.764801,12.176520
-21.179577,-31.264801,12.176520
-21.179577,-29.764801,12.176520
