15.793883,-27.060972,1.777016
15.793883,-37.310725,3.036837
15.793883,-35.810725,3.036837
15.793883,-34.310725,3.036837
15.793883,-32.810725,3.036837
15.793883,-31.310725,3.036837
15.793883,-29.810725,3.036837
15.793883,-28.310725,3.036837
15.793883,-26.810725,3.036837
15.793883,-36.805191,4.296658
15.793883,-35.305191,4.296658
15.793883,-33.805191,4.296658
15.793883,-32.305191,4.296658
15.793883,-30.805191,4.296658
15.793883,-29.305191,4.296658
15.793883,-27.805191,4.296658
15.793883,-26.305191,4.296658
15.793883,-36.207440,5.556479
15.793883,-34.707440,5.556479
15.793883,-33.207440,5.556479
15.793883,-31.707440,5.556479
15.793883,-30.207440,5.556479
15.793883,-28.707440,5.556479
15.793883,-27.207440,5.556479
15.793883,-25.707440,5.556479
15.793883,-35.639499,6.816300
15.793883,-34.139499,6.816300
15.793883,-32.639499,6.816300
15.793883,-31.139499,6.816300
15.793883,-29.639499,6.816300
15.793883,-28.139499,6.816300
15.793883,-26.639499,6.816300
15.793883,-25.139499,6.816300
15.793883,-35.182351,8.076121
15.793883,-33.682351,8.076121
15.793883,-32.182351,8.076121
15.793883,-30.682351,8.076121
15.793883,-29.182351,8.076121
15.793883,-27.682351,8.076121
15.793883,-26.182351,8.076121
15.793883,-34.875935,9.335941
15.793883,-33.375935,9.335941
15.793883,-31.875935,9.335941
15.793883,-30.375935,9.335941
15.793883,-28.875935,9.335941
15.793883,-27.375935,9.335941
15.793883,-25.875935,9.335941
15.793883,-34.719146,10.595762
15.793883,-33.219146,10.595762
15.793883,-31.719146,10.595762
15.793883,-30.219146,10.595762
15.793883,-28.719146,10.595762
15.793883,-27.219146,10.595762
15.793883,-34.669837,11.855583
15.793883,-33.169837,11.855583
15.793883,-31.669837,11.855583
15.793883,-30.169837,11.855583
15.793883,-28.669837,11.855583
15.793883,-27.169837,11.855583
15.793883,-34.644815,13.115404
15.793883,-33.144815,13.115404
15.793883,-31.644815,13.115404
15.793883,-30.144815,13.115404
15.793883,-28.644815,13.115404
15.793883,-34.519846,14.375225
15.793883,-33.019846,14.375225
15.793883,-31.519846,14.375225
15.793883,-30.019846,14.375225
15.793883,-34.129650,15.635046
15.793883,-32.629650,15.635046
15.793883,-31.129650,15.635046
15.793883,-33.267904,16.894867
15.793883,-31.767904,16.894867
15.793883,-31.687243,18.154688
15.172803,-37.610673,0.512498
15.172803,-36.110673,0.512498
15.172803,-34.610673,0.512498
15.172803,-33.110673,0.512498
15.172803,-31.610673,0.512498
15.172803,-30.110673,0.512498
15.172803,-28.610673,0.512498
15.172803,-37.731732,1.717178
15.172803,-36.231732,1.717178
15.172803,-34.731732,1.717178
15.172803,-33.231732,1.717178
15.172803,-31.731732,1.717178
15.172803,-30.231732,1.717178
15.172803,-28.731732,1.717178
15.172803,-37.411533,2.921857
15.172803,-35.911533,2.921857
15.172803,-34.411533,2.921857
15.172803,-32.911533,2.921857
15.172803,-31.411533,2.921857
15.172803,-29.911533,2.921857
15.172803,-28.411533,2.921857
15.172803,-26.911533,2.921857
15.172803,-36.831415,4.126537
15.172803,-35.331415,4.126537
15.172803,-33.831415,4.126537
15.172803,-32.331415,4.126537
15.172803,-30.831415,4.126537
15.172803,-29.331415,4.126537
15.172803,-27.831415,4.126537
15.172803,-26.331415,4.126537
15.172803,-36.138402,5.331217
15.172803,-34.638402,5.331217
15.172803,-33.138402,5.331217
15.172803,-31.638402,5.331217
15.172803,-30.138402,5.331217
15.172803,-28.638402,5.331217
15.172803,-27.138402,5.331217
15.172803,-25.638402,5.331217
15.172803,-35.445202,6.535896
15.172803,-33.945202,6.535896
15.172803,-32.445202,6.535896
15.172803,-30.945202,6.535896
15.172803,-29.445202,6.535896
15.172803,-27.945202,6.535896
15.172803,-26.445202,6.535896
15.172803,-34.830206,7.740576
15.172803,-33.330206,7.740576
15.172803,-31.830206,7.740576
15.172803,-30.330206,7.740576
15.172803,-28.830206,7.740576
15.172803,-27.330206,7.740576
15.172803,-25.830206,7.740576
15.172803,-34.337490,8.945256
15.172803,-32.837490,8.945256
15.172803,-31.337490,8.945256
15.172803,-29.837490,8.945256
15.172803,-28.337490,8.945256
15.172803,-26.837490,8.945256
15.172803,-33.976813,10.149936
15.172803,-32.476813,10.149936
15.172803,-30.976813,10.149936
15.172803,-29.476813,10.149936
15.172803,-27.976813,10.149936
15.172803,-26.476813,10.149936
15.172803,-33.723619,11.354615
15.172803,-32.223619,11.354615
15.172803,-30.723619,11.354615
15.172803,-29.223619,11.354615
15.172803,-27.723619,11.354615
15.172803,-33.519034,12.559295
15.172803,-32.019034,12.559295
15.172803,-30.519034,12.559295
15.172803,-29.019034,12.559295
15.172803,-27.519034,12.559295
15.172803,-33.269870,13.763975
15.172803,-31.769870,13.763975
15.172803,-30.269870,13.763975
15.172803,-28.769870,13.763975
15.172803,-32.848623,14.968655
15.172803,-31.348623,14.968655
15.172803,-29.848623,14.968655
15.172803,-32.093472,16.173334
15.172803,-30.593472,16.173334
15.172803,-30.808279,17.378014
14.427506,-37.877512,0.507130
14.427506,-36.377512,0.507130
14.427506,-34.877512,0.507130
14.427506,-33.377512,0.507130
14.427506,-31.877512,0.507130
14.427506,-30.377512,0.507130
14.427506,-28.877512,0.507130
14.427506,-37.894897,1.632202
14.427506,-36.394897,1.632202
14.427506,-34.894897,1.632202
14.427506,-33.394897,1.632202
14.427506,-31.894897,1.632202
14.427506,-30.394897,1.632202
14.427506,-28.894897,1.632202
14.427506,-37.502457,2.757274
14.427506,-36.002457,2.757274
14.427506,-34.502457,2.757274
14.427506,-33.002457,2.757274
14.427506,-31.502457,2.757274
14.427506,-30.002457,2.757274
14.427506,-28.502457,2.757274
14.427506,-36.851172,3.882346
14.427506,-35.351172,3.882346
14.427506,-33.851172,3.882346
14.427506,-32.351172,3.882346
14.427506,-30.851172,3.882346
14.427506,-29.351172,3.882346
14.427506,-27.851172,3.882346
14.427506,-36.065920,5.007419
14.427506,-34.565920,5.007419
14.427506,-33.065920,5.007419
14.427506,-31.565920,5.007419
14.427506,-30.065920,5.007419
14.427506,-28.565920,5.007419
14.427506,-27.065920,5.007419
14.427506,-35.245470,6.132491
14.427506,-33.745470,6.132491
14.427506,-32.245470,6.132491
14.427506,-30.745470,6.132491
14.427506,-29.245470,6.132491
14.427506,-27.745470,6.132491
14.427506,-26.245470,6.132491
14.427506,-34.462486,7.257563
14.427506,-32.962486,7.257563
14.427506,-31.462486,7.257563
14.427506,-29.962486,7.257563
14.427506,-28.462486,7.257563
14.427506,-26.962486,7.257563
14.427506,-33.763529,8.382635
14.427506,-32.263529,8.382635
14.427506,-30.763529,8.382635
14.427506,-29.263529,8.382635
14.427506,-27.763529,8.382635
14.427506,-26.263529,8.382635
14.427506,-33.169052,9.507707
14.427506,-31.669052,9.507707
14.427506,-30.169052,9.507707
14.427506,-28.669052,9.507707
14.427506,-27.169052,9.507707
14.427506,-32.673404,10.632779
14.427506,-31.173404,10.632779
14.427506,-29.673404,10.632779
14.427506,-28.173404,10.632779
14.427506,-26.673404,10.632779
14.427506,-32.244826,11.757851
14.427506,-30.744826,11.757851
14.427506,-29.244826,11.757851
14.427506,-27.744826,11.757851
14.427506,-31.825457,12.882923
14.427506,-30.325457,12.882923
14.427506,-28.825457,12.882923
14.427506,-31.331329,14.007995
14.427506,-29.831329,14.007995
14.427506,-30.652367,15.133067
14.427506,-29.674207,16.258140
13.775372,-38.063207,0.503118
13.775372,-36.563207,0.503118
13.775372,-35.063207,0.503118
13.775372,-33.563207,0.503118
13.775372,-32.063207,0.503118
13.775372,-30.563207,0.503118
13.775372,-37.995535,1.546180
13.775372,-36.495535,1.546180
13.775372,-34.995535,1.546180
13.775372,-33.495535,1.546180
13.775372,-31.995535,1.546180
13.775372,-30.495535,1.546180
13.775372,-28.995535,1.546180
13.775372,-37.554648,2.589243
13.775372,-36.054648,2.589243
13.775372,-34.554648,2.589243
13.775372,-33.054648,2.589243
13.775372,-31.554648,2.589243
13.775372,-30.054648,2.589243
13.775372,-28.554648,2.589243
13.775372,-36.863471,3.632306
13.775372,-35.363471,3.632306
13.775372,-33.863471,3.632306
13.775372,-32.363471,3.632306
13.775372,-30.863471,3.632306
13.775372,-29.363471,3.632306
13.775372,-27.863471,3.632306
13.775372,-36.025637,4.675369
13.775372,-34.525637,4.675369
13.775372,-33.025637,4.675369
13.775372,-31.525637,4.675369
13.775372,-30.025637,4.675369
13.775372,-28.525637,4.675369
13.775372,-35.125497,5.718432
13.775372,-33.625497,5.718432
13.775372,-32.125497,5.718432
13.775372,-30.625497,5.718432
13.775372,-29.125497,5.718432
13.775372,-27.625497,5.718432
13.775372,-34.228113,6.761494
13.775372,-32.728113,6.761494
13.775372,-31.228113,6.761494
13.775372,-29.728113,6.761494
13.775372,-28.228113,6.761494
13.775372,-26.728113,6.761494
13.775372,-33.379261,7.804557
13.775372,-31.879261,7.804557
13.775372,-30.379261,7.804557
13.775372,-28.879261,7.804557
13.775372,-27.379261,7.804557
13.775372,-32.605432,8.847620
13.775372,-31.105432,8.847620
13.775372,-29.605432,8.847620
13.775372,-28.105432,8.847620
13.775372,-26.605432,8.847620
13.775372,-31.913828,9.890683
13.775372,-30.413828,9.890683
13.775372,-28.913828,9.890683
13.775372,-27.413828,9.890683
13.775372,-31.292366,10.933745
13.775372,-29.792366,10.933745
13.775372,-28.292366,10.933745
13.775372,-30.709677,11.976808
13.775372,-29.209677,11.976808
13.775372,-27.709677,11.976808
13.775372,-30.115105,13.019871
13.775372,-28.615105,13.019871
13.775372,-29.438707,14.062934
13.775372,-29.185797,15.105997
13.464832,-38.133417,0.501569
13.464832,-36.633417,0.501569
13.464832,-35.133417,0.501569
13.464832,-33.633417,0.501569
13.464832,-32.133417,0.501569
13.464832,-30.633417,0.501569
13.464832,-38.028295,1.501457
13.464832,-36.528295,1.501457
13.464832,-35.028295,1.501457
13.464832,-33.528295,1.501457
13.464832,-32.028295,1.501457
13.464832,-30.528295,1.501457
13.464832,-37.570377,2.501345
13.464832,-36.070377,2.501345
13.464832,-34.570377,2.501345
13.464832,-33.070377,2.501345
13.464832,-31.570377,2.501345
13.464832,-30.070377,2.501345
13.464832,-36.869134,3.501233
13.464832,-35.369134,3.501233
13.464832,-33.869134,3.501233
13.464832,-32.369134,3.501233
13.464832,-30.869134,3.501233
13.464832,-29.369134,3.501233
13.464832,-36.017748,4.501121
13.464832,-34.517748,4.501121
13.464832,-33.017748,4.501121
13.464832,-31.517748,4.501121
13.464832,-30.017748,4.501121
13.464832,-28.517748,4.501121
13.464832,-35.093119,5.501009
13.464832,-33.593119,5.501009
13.464832,-32.093119,5.501009
13.464832,-30.593119,5.501009
13.464832,-29.093119,5.501009
13.464832,-27.593119,5.501009
13.464832,-34.155858,6.500897
13.464832,-32.655858,6.500897
13.464832,-31.155858,6.500897
13.464832,-29.655858,6.500897
13.464832,-28.155858,6.500897
13.464832,-33.250292,7.500784
13.464832,-31.750292,7.500784
13.464832,-30.250292,7.500784
13.464832,-28.750292,7.500784
13.464832,-27.250292,7.500784
13.464832,-32.404460,8.500672
13.464832,-30.904460,8.500672
13.464832,-29.404460,8.500672
13.464832,-27.904460,8.500672
13.464832,-31.630116,9.500560
13.464832,-30.130116,9.500560
13.464832,-28.630116,9.500560
13.464832,-27.130116,9.500560
13.464832,-30.922728,10.500448
13.464832,-29.422728,10.500448
13.464832,-27.922728,10.500448
13.464832,-30.261478,11.500336
13.464832,-28.761478,11.500336
13.464832,-29.609261,12.500224
13.464832,-28.109261,12.500224
13.464832,-28.912687,13.500112
13.464832,-28.976359,14.500000
26.693844,-32.709569,0.500253
26.693844,-31.209569,0.500253
26.693844,-29.709569,0.500253
26.693844,-28.209569,0.500253
26.693844,-33.458583,1.573592
26.693844,-31.958583,1.573592
26.693844,-30.458583,1.573592
26.693844,-28.958583,1.573592
26.693844,-27.458583,1.573592
26.693844,-33.926244,2.646930
26.693844,-32.426244,2.646930
26.693844,-30.926244,2.646930
26.693844,-29.426244,2.646930
26.693844,-27.926244,2.646930
26.693844,-26.426244,2.646930
26.693844,-34.240021,3.720269
26.693844,-32.740021,3.720269
26.693844,-31.240021,3.720269
26.693844,-29.740021,3.720269
26.693844,-28.240021,3.720269
26.693844,-26.740021,3.720269
26.693844,-34.505758,4.793608
26.693844,-33.005758,4.793608
26.693844,-31.505758,4.793608
26.693844,-30.005758,4.793608
26.693844,-28.505758,4.793608
26.693844,-27.005758,4.793608
26.693844,-34.807674,5.866947
26.693844,-33.307674,5.866947
26.693844,-31.807674,5.866947
26.693844,-30.307674,5.866947
26.693844,-28.807674,5.866947
26.693844,-27.307674,5.866947
26.693844,-35.208362,6.940285
26.693844,-33.708362,6.940285
26.693844,-32.208362,6.940285
26.693844,-30.708362,6.940285
26.693844,-29.208362,6.940285
26.693844,-27.708362,6.940285
26.693844,-26.208362,6.940285
26.693844,-35.748793,8.013624
26.693844,-34.248793,8.013624
26.693844,-32.748793,8.013624
26.693844,-31.248793,8.013624
26.693844,-29.748793,8.013624
26.693844,-28.248793,8.013624
26.693844,-26.748793,8.013624
26.693844,-36.448308,9.086963
26.693844,-34.948308,9.086963
26.693844,-33.448308,9.086963
26.693844,-31.948308,9.086963
26.693844,-30.448308,9.086963
26.693844,-28.948308,9.086963
26.693844,-27.448308,9.086963
26.693844,-37.304627,10.160301
26.693844,-35.804627,10.160301
26.693844,-34.304627,10.160301
26.693844,-32.804627,10.160301
26.693844,-31.304627,10.160301
26.693844,-29.804627,10.160301
26.693844,-38.293843,11.233640
26.693844,-36.793843,11.233640
26.693844,-35.293843,11.233640
26.693844,-33.793843,11.233640
26.693844,-32.293843,11.233640
26.693844,-30.793843,11.233640
26.693844,-39.370424,12.306979
26.693844,-37.870424,12.306979
26.693844,-36.370424,12.306979
26.693844,-34.870424,12.306979
26.693844,-33.370424,12.306979
26.693844,-31.870424,12.306979
26.693844,-40.467213,13.380317
26.693844,-38.967213,13.380317
26.693844,-37.467213,13.380317
26.693844,-35.967213,13.380317
26.693844,-34.467213,13.380317
26.693844,-32.967213,13.380317
26.693844,-41.495430,14.453656
26.693844,-39.995430,14.453656
26.693844,-38.495430,14.453656
26.693844,-36.995430,14.453656
26.693844,-35.495430,14.453656
26.693844,-42.344666,15.526995
26.693844,-40.844666,15.526995
26.693844,-39.344666,15.526995
26.693844,-37.844666,15.526995
26.693844,-32.709569,0.500253
26.693844,-31.209569,0.500253
26.693844,-29.709569,0.500253
26.693844,-28.209569,0.500253
26.693844,-33.458583,1.573592
26.693844,-31.958583,1.573592
26.693844,-30.458583,1.573592
26.693844,-28.958583,1.573592
26.693844,-27.458583,1.573592
26.693844,-33.926244,2.646930
26.693844,-32.426244,2.646930
26.693844,-30.926244,2.646930
26.693844,-29.426244,2.646930
26.693844,-27.926244,2.646930
26.693844,-26.426244,2.646930
26.693844,-34.240021,3.720269
26.693844,-32.740021,3.720269
26.693844,-31.240021,3.720269
26.693844,-29.740021,3.720269
26.693844,-28.240021,3.720269
26.693844,-26.740021,3.720269
26.693844,-34.505758,4.793608
26.693844,-33.005758,4.793608
26.693844,-31.505758,4.793608
26.693844,-30.005758,4.793608
26.693844,-28.505758,4.793608
26.693844,-27.005758,4.793608
26.693844,-34.807674,5.866947
26.693844,-33.307674,5.866947
26.693844,-31.807674,5.866947
26.693844,-30.307674,5.866947
26.693844,-28.807674,5.866947
26.693844,-27.307674,5.866947
26.693844,-35.208362,6.940285
26.693844,-33.708362,6.940285
26.693844,-32.208362,6.940285
26.693844,-30.708362,6.940285
26.693844,-29.208362,6.940285
26.693844,-27.708362,6.940285
26.693844,-26.208362,6.940285
26.693844,-35.748793,8.013624
26.693844,-34.248793,8.013624
26.693844,-32.748793,8.013624
26.693844,-31.248793,8.013624
26.693844,-29.748793,8.013624
26.693844,-28.248793,8.013624
26.693844,-26.748793,8.013624
26.693844,-36.448308,9.086963
26.693844,-34.948308,9.086963
26.693844,-33.448308,9.086963
26.693844,-31.948308,9.086963
26.693844,-30.448308,9.086963
26.693844,-28.948308,9.086963
26.693844,-27.448308,9.086963
26.693844,-37.304627,10.160301
26.693844,-35.804627,10.160301
26.693844,-34.304627,10.160301
26.693844,-32.804627,10.160301
26.693844,-31.304627,10.160301
26.693844,-29.804627,10.160301
26.693844,-38.293843,11.233640
26.693844,-36.793843,11.233640
26.693844,-35.293843,11.233640
26.693844,-33.793843,11.233640
26.693844,-32.293843,11.233640
26.693844,-30.793843,11.233640
26.693844,-39.370424,12.306979
26.693844,-37.870424,12.306979
26.693844,-36.370424,12.306979
26.693844,-34.870424,12.306979
26.693844,-33.370424,12.306979
26.693844,-31.870424,12.306979
26.693844,-40.467213,13.380317
26.693844,-38.967213,13.380317
26.693844,-37.467213,13.380317
26.693844,-35.967213,13.380317
26.693844,-34.467213,13.380317
26.693844,-32.967213,13.380317
26.693844,-41.495430,14.453656
26.693844,-39.995430,14.453656
26.693844,-38.495430,14.453656
26.693844,-36.995430,14.453656
26.693844,-35.495430,14.453656
26.693844,-42.344666,15.526995
26.693844,-40.844666,15.526995
26.693844,-39.344666,15.526995
26.693844,-37.844666,15.526995
25.979601,-32.823553,0.502974
25.979601,-31.323553,0.502974
25.979601,-29.823553,0.502974
25.979601,-28.323553,0.502974
25.979601,-26.823553,0.502974
25.979601,-33.595616,1.623822
25.979601,-32.095616,1.623822
25.979601,-30.595616,1.623822
25.979601,-29.095616,1.623822
25.979601,-27.595616,1.623822
25.979601,-34.067520,2.744670
25.979601,-32.567520,2.744670
25.979601,-31.067520,2.744670
25.979601,-29.567520,2.744670
25.979601,-28.067520,2.744670
25.979601,-26.567520,2.744670
25.979601,-34.383076,3.865517
25.979601,-32.883076,3.865517
25.979601,-31.383076,3.865517
25.979601,-29.883076,3.865517
25.979601,-28.383076,3.865517
25.979601,-26.883076,3.865517
25.979601,-34.660382,4.986365
25.979601,-33.160382,4.986365
25.979601,-31.660382,4.986365
25.979601,-30.160382,4.986365
25.979601,-28.660382,4.986365
25.979601,-27.160382,4.986365
25.979601,-25.660382,4.986365
25.979601,-34.991816,6.107213
25.979601,-33.491816,6.107213
25.979601,-31.991816,6.107213
25.979601,-30.491816,6.107213
25.979601,-28.991816,6.107213
25.979601,-27.491816,6.107213
25.979601,-25.991816,6.107213
25.979601,-35.444045,7.228060
25.979601,-33.944045,7.228060
25.979601,-32.444045,7.228060
25.979601,-30.944045,7.228060
25.979601,-29.444045,7.228060
25.979601,-27.944045,7.228060
25.979601,-26.444045,7.228060
25.979601,-36.058017,8.348908
25.979601,-34.558017,8.348908
25.979601,-33.058017,8.348908
25.979601,-31.558017,8.348908
25.979601,-30.058017,8.348908
25.979601,-28.558017,8.348908
25.979601,-27.058017,8.348908
25.979601,-36.848966,9.469756
25.979601,-35.348966,9.469756
25.979601,-33.848966,9.469756
25.979601,-32.348966,9.469756
25.979601,-30.848966,9.469756
25.979601,-29.348966,9.469756
25.979601,-27.848966,9.469756
25.979601,-37.806410,10.590604
25.979601,-36.306410,10.590604
25.979601,-34.806410,10.590604
25.979601,-33.306410,10.590604
25.979601,-31.806410,10.590604
25.979601,-30.306410,10.590604
25.979601,-28.806410,10.590604
25.979601,-38.894151,11.711451
25.979601,-37.394151,11.711451
25.979601,-35.894151,11.711451
25.979601,-34.394151,11.711451
25.979601,-32.894151,11.711451
25.979601,-31.394151,11.711451
25.979601,-40.050275,12.832299
25.979601,-38.550275,12.832299
25.979601,-37.050275,12.832299
25.979601,-35.550275,12.832299
25.979601,-34.050275,12.832299
25.979601,-32.550275,12.832299
25.979601,-41.187155,13.953147
25.979601,-39.687155,13.953147
25.979601,-38.187155,13.953147
25.979601,-36.687155,13.953147
25.979601,-35.187155,13.953147
25.979601,-33.687155,13.953147
25.979601,-42.191444,15.073994
25.979601,-40.691444,15.073994
25.979601,-39.191444,15.073994
25.979601,-37.691444,15.073994
25.979601,-36.191444,15.073994
25.979601,-42.924083,16.194842
25.979601,-41.424083,16.194842
25.979601,-39.924083,16.194842
25.979601,-38.424083,16.194842
25.606953,-32.900238,0.505012
25.606953,-31.400238,0.505012
25.606953,-29.900238,0.505012
25.606953,-28.400238,0.505012
25.606953,-26.900238,0.505012
25.606953,-33.682713,1.650359
25.606953,-32.182713,1.650359
25.606953,-30.682713,1.650359
25.606953,-29.182713,1.650359
25.606953,-27.682713,1.650359
25.606953,-26.182713,1.650359
25.606953,-34.155114,2.795705
25.606953,-32.655114,2.795705
25.606953,-31.155114,2.795705
25.606953,-29.655114,2.795705
25.606953,-28.155114,2.795705
25.606953,-26.655114,2.795705
25.606953,-34.470138,3.941052
25.606953,-32.970138,3.941052
25.606953,-31.470138,3.941052
25.606953,-29.970138,3.941052
25.606953,-28.470138,3.941052
25.606953,-26.970138,3.941052
25.606953,-34.752442,5.086398
25.606953,-33.252442,5.086398
25.606953,-31.752442,5.086398
25.606953,-30.252442,5.086398
25.606953,-28.752442,5.086398
25.606953,-27.252442,5.086398
25.606953,-25.752442,5.086398
25.606953,-35.098646,6.231745
25.606953,-33.598646,6.231745
25.606953,-32.098646,6.231745
25.606953,-30.598646,6.231745
25.606953,-29.098646,6.231745
25.606953,-27.598646,6.231745
25.606953,-26.098646,6.231745
25.606953,-35.577331,7.377091
25.606953,-34.077331,7.377091
25.606953,-32.577331,7.377091
25.606953,-31.077331,7.377091
25.606953,-29.577331,7.377091
25.606953,-28.077331,7.377091
25.606953,-26.577331,7.377091
25.606953,-36.229036,8.522438
25.606953,-34.729036,8.522438
25.606953,-33.229036,8.522438
25.606953,-31.729036,8.522438
25.606953,-30.229036,8.522438
25.606953,-28.729036,8.522438
25.606953,-27.229036,8.522438
25.606953,-37.066267,9.667784
25.606953,-35.566267,9.667784
25.606953,-34.066267,9.667784
25.606953,-32.566267,9.667784
25.606953,-31.066267,9.667784
25.606953,-29.566267,9.667784
25.606953,-28.066267,9.667784
25.606953,-38.073487,10.813131
25.606953,-36.573487,10.813131
25.606953,-35.073487,10.813131
25.606953,-33.573487,10.813131
25.606953,-32.073487,10.813131
25.606953,-30.573487,10.813131
25.606953,-29.073487,10.813131
25.606953,-39.207121,11.958477
25.606953,-37.707121,11.958477
25.606953,-36.207121,11.958477
25.606953,-34.707121,11.958477
25.606953,-33.207121,11.958477
25.606953,-31.707121,11.958477
25.606953,-30.207121,11.958477
25.606953,-40.395556,13.103824
25.606953,-38.895556,13.103824
25.606953,-37.395556,13.103824
25.606953,-35.895556,13.103824
25.606953,-34.395556,13.103824
25.606953,-32.895556,13.103824
25.606953,-41.539141,14.249170
25.606953,-40.039141,14.249170
25.606953,-38.539141,14.249170
25.606953,-37.039141,14.249170
25.606953,-35.539141,14.249170
25.606953,-34.039141,14.249170
25.606953,-42.510184,15.394517
25.606953,-41.010184,15.394517
25.606953,-39.510184,15.394517
25.606953,-38.010184,15.394517
25.606953,-36.510184,15.394517
25.606953,-43.152957,16.539863
25.606953,-41.652957,16.539863
25.606953,-40.152957,16.539863
25.606953,-38.652957,16.539863
25.047981,-33.036612,0.508616
25.047981,-31.536612,0.508616
25.047981,-30.036612,0.508616
25.047981,-28.536612,0.508616
25.047981,-27.036612,0.508616
25.047981,-33.832174,1.689995
25.047981,-32.332174,1.689995
25.047981,-30.832174,1.689995
25.047981,-29.332174,1.689995
25.047981,-27.832174,1.689995
25.047981,-26.332174,1.689995
25.047981,-34.302726,2.871374
25.047981,-32.802726,2.871374
25.047981,-31.302726,2.871374
25.047981,-29.802726,2.871374
25.047981,-28.302726,2.871374
25.047981,-26.802726,2.871374
25.047981,-34.614609,4.052753
25.047981,-33.114609,4.052753
25.047981,-31.614609,4.052753
25.047981,-30.114609,4.052753
25.047981,-28.614609,4.052753
25.047981,-27.114609,4.052753
25.047981,-25.614609,4.052753
25.047981,-34.902426,5.234133
25.047981,-33.402426,5.234133
25.047981,-31.902426,5.234133
25.047981,-30.402426,5.234133
25.047981,-28.902426,5.234133
25.047981,-27.402426,5.234133
25.047981,-25.902426,5.234133
25.047981,-35.269045,6.415512
25.047981,-33.769045,6.415512
25.047981,-32.269045,6.415512
25.047981,-30.769045,6.415512
25.047981,-29.269045,6.415512
25.047981,-27.769045,6.415512
25.047981,-26.269045,6.415512
25.047981,-35.785595,7.596891
25.047981,-34.285595,7.596891
25.047981,-32.785595,7.596891
25.047981,-31.285595,7.596891
25.047981,-29.785595,7.596891
25.047981,-28.285595,7.596891
25.047981,-26.785595,7.596891
25.047981,-36.491471,8.778270
25.047981,-34.991471,8.778270
25.047981,-33.491471,8.778270
25.047981,-31.991471,8.778270
25.047981,-30.491471,8.778270
25.047981,-28.991471,8.778270
25.047981,-27.491471,8.778270
25.047981,-37.394326,9.959650
25.047981,-35.894326,9.959650
25.047981,-34.394326,9.959650
25.047981,-32.894326,9.959650
25.047981,-31.394326,9.959650
25.047981,-29.894326,9.959650
25.047981,-28.394326,9.959650
25.047981,-38.470079,11.141029
25.047981,-36.970079,11.141029
25.047981,-35.470079,11.141029
25.047981,-33.970079,11.141029
25.047981,-32.470079,11.141029
25.047981,-30.970079,11.141029
25.047981,-29.470079,11.141029
25.047981,-39.662912,12.322408
25.047981,-38.162912,12.322408
25.047981,-36.662912,12.322408
25.047981,-35.162912,12.322408
25.047981,-33.662912,12.322408
25.047981,-32.162912,12.322408
25.047981,-30.662912,12.322408
25.047981,-40.885268,13.503787
25.047981,-39.385268,13.503787
25.047981,-37.885268,13.503787
25.047981,-36.385268,13.503787
25.047981,-34.885268,13.503787
25.047981,-33.385268,13.503787
25.047981,-42.017855,14.685167
25.047981,-40.517855,14.685167
25.047981,-39.017855,14.685167
25.047981,-37.517855,14.685167
25.047981,-36.017855,14.685167
25.047981,-34.517855,14.685167
25.047981,-42.909642,15.866546
25.047981,-41.409642,15.866546
25.047981,-39.909642,15.866546
25.047981,-38.409642,15.866546
25.047981,-36.909642,15.866546
25.047981,-43.377862,17.047925
25.047981,-41.877862,17.047925
25.047981,-40.377862,17.047925
25.047981,-38.877862,17.047925
24.551117,-33.178516,0.512172
24.551117,-31.678516,0.512172
24.551117,-30.178516,0.512172
24.551117,-28.678516,0.512172
24.551117,-27.178516,0.512172
24.551117,-33.982751,1.724549
24.551117,-32.482751,1.724549
24.551117,-30.982751,1.724549
24.551117,-29.482751,1.724549
24.551117,-27.982751,1.724549
24.551117,-26.482751,1.724549
24.551117,-34.448690,2.936926
24.551117,-32.948690,2.936926
24.551117,-31.448690,2.936926
24.551117,-29.948690,2.936926
24.551117,-28.448690,2.936926
24.551117,-26.948690,2.936926
24.551117,-25.448690,2.936926
24.551117,-34.754972,4.149303
24.551117,-33.254972,4.149303
24.551117,-31.754972,4.149303
24.551117,-30.254972,4.149303
24.551117,-28.754972,4.149303
24.551117,-27.254972,4.149303
24.551117,-25.754972,4.149303
24.551117,-35.045036,5.361680
24.551117,-33.545036,5.361680
24.551117,-32.045036,5.361680
24.551117,-30.545036,5.361680
24.551117,-29.045036,5.361680
24.551117,-27.545036,5.361680
24.551117,-26.045036,5.361680
24.551117,-35.427117,6.574057
24.551117,-33.927117,6.574057
24.551117,-32.427117,6.574057
24.551117,-30.927117,6.574057
24.551117,-29.427117,6.574057
24.551117,-27.927117,6.574057
24.551117,-26.427117,6.574057
24.551117,-35.974251,7.786434
24.551117,-34.474251,7.786434
24.551117,-32.974251,7.786434
24.551117,-31.474251,7.786434
24.551117,-29.974251,7.786434
24.551117,-28.474251,7.786434
24.551117,-26.974251,7.786434
24.551117,-36.724271,8.998811
24.551117,-35.224271,8.998811
24.551117,-33.724271,8.998811
24.551117,-32.224271,8.998811
24.551117,-30.724271,8.998811
24.551117,-29.224271,8.998811
24.551117,-27.724271,8.998811
24.551117,-37.679809,10.211188
24.551117,-36.179809,10.211188
24.551117,-34.679809,10.211188
24.551117,-33.179809,10.211188
24.551117,-31.679809,10.211188
24.551117,-30.179809,10.211188
24.551117,-28.679809,10.211188
24.551117,-38.808294,11.423565
24.551117,-37.308294,11.423565
24.551117,-35.808294,11.423565
24.551117,-34.308294,11.423565
24.551117,-32.808294,11.423565
24.551117,-31.308294,11.423565
24.551117,-29.808294,11.423565
24.551117,-40.041957,12.635942
24.551117,-38.541957,12.635942
24.551117,-37.041957,12.635942
24.551117,-35.541957,12.635942
24.551117,-34.041957,12.635942
24.551117,-32.541957,12.635942
24.551117,-31.041957,12.635942
24.551117,-41.277823,13.848319
24.551117,-39.777823,13.848319
24.551117,-38.277823,13.848319
24.551117,-36.777823,13.848319
24.551117,-35.277823,13.848319
24.551117,-33.777823,13.848319
24.551117,-42.377720,15.060696
24.551117,-40.877720,15.060696
24.551117,-39.377720,15.060696
24.551117,-37.877720,15.060696
24.551117,-36.377720,15.060696
24.551117,-34.877720,15.060696
24.551117,-43.168270,16.273073
24.551117,-41.668270,16.273073
24.551117,-40.168270,16.273073
24.551117,-38.668270,16.273073
24.551117,-37.168270,16.273073
24.551117,-43.440897,17.485450
24.551117,-41.940897,17.485450
24.551117,-40.440897,17.485450
24.551117,-38.940897,17.485450
23.184740,-33.660926,0.522250
23.184740,-32.160926,0.522250
23.184740,-30.660926,0.522250
23.184740,-29.160926,0.522250
23.184740,-27.660926,0.522250
23.184740,-26.160926,0.522250
23.184740,-34.471254,1.812237
23.184740,-32.971254,1.812237
23.184740,-31.471254,1.812237
23.184740,-29.971254,1.812237
23.184740,-28.471254,1.812237
23.184740,-26.971254,1.812237
23.184740,-25.471254,1.812237
23.184740,-34.907162,3.102224
23.184740,-33.407162,3.102224
23.184740,-31.907162,3.102224
23.184740,-30.407162,3.102224
23.184740,-28.907162,3.102224
23.184740,-27.407162,3.102224
23.184740,-25.907162,3.102224
23.184740,-35.180445,4.392211
23.184740,-33.680445,4.392211
23.184740,-32.180445,4.392211
23.184740,-30.680445,4.392211
23.184740,-29.180445,4.392211
23.184740,-27.680445,4.392211
23.184740,-26.180445,4.392211
23.184740,-24.680445,4.392211
23.184740,-35.457781,5.682198
23.184740,-33.957781,5.682198
23.184740,-32.457781,5.682198
23.184740,-30.957781,5.682198
23.184740,-29.457781,5.682198
23.184740,-27.957781,5.682198
23.184740,-26.457781,5.682198
23.184740,-24.957781,5.682198
23.184740,-35.860729,6.972184
23.184740,-34.360729,6.972184
23.184740,-32.860729,6.972184
23.184740,-31.360729,6.972184
23.184740,-29.860729,6.972184
23.184740,-28.360729,6.972184
23.184740,-26.860729,6.972184
23.184740,-25.360729,6.972184
23.184740,-36.465729,8.262171
23.184740,-34.965729,8.262171
23.184740,-33.465729,8.262171
23.184740,-31.965729,8.262171
23.184740,-30.465729,8.262171
23.184740,-28.965729,8.262171
23.184740,-27.465729,8.262171
23.184740,-25.965729,8.262171
23.184740,-37.304105,9.552158
23.184740,-35.804105,9.552158
23.184740,-34.304105,9.552158
23.184740,-32.804105,9.552158
23.184740,-31.304105,9.552158
23.184740,-29.804105,9.552158
23.184740,-28.304105,9.552158
23.184740,-26.804105,9.552158
23.184740,-38.362062,10.842145
23.184740,-36.862062,10.842145
23.184740,-35.362062,10.842145
23.184740,-33.862062,10.842145
23.184740,-32.362062,10.842145
23.184740,-30.862062,10.842145
23.184740,-29.362062,10.842145
23.184740,-27.862062,10.842145
23.184740,-39.580684,12.132132
23.184740,-38.080684,12.132132
23.184740,-36.580684,12.132132
23.184740,-35.080684,12.132132
23.184740,-33.580684,12.132132
23.184740,-32.080684,12.132132
23.184740,-30.580684,12.132132
23.184740,-29.080684,12.132132
23.184740,-40.855941,13.422119
23.184740,-39.355941,13.422119
23.184740,-37.855941,13.422119
23.184740,-36.355941,13.422119
23.184740,-34.855941,13.422119
23.184740,-33.355941,13.422119
23.184740,-31.855941,13.422119
23.184740,-42.038682,14.712106
23.184740,-40.538682,14.712106
23.184740,-39.038682,14.712106
23.184740,-37.538682,14.712106
23.184740,-36.038682,14.712106
23.184740,-34.538682,14.712106
23.184740,-33.038682,14.712106
23.184740,-42.934638,16.002093
23.184740,-41.434638,16.002093
23.184740,-39.934638,16.002093
23.184740,-38.434638,16.002093
23.184740,-36.934638,16.002093
23.184740,-35.434638,16.002093
23.184740,-43.304424,17.292079
23.184740,-41.804424,17.292079
23.184740,-40.304424,17.292079
23.184740,-38.804424,17.292079
23.184740,-37.304424,17.292079
23.184740,-42.863534,18.582066
23.184740,-41.363534,18.582066
23.184740,-39.863534,18.582066
22.501552,-33.947184,0.526765
22.501552,-32.447184,0.526765
22.501552,-30.947184,0.526765
22.501552,-29.447184,0.526765
22.501552,-27.947184,0.526765
22.501552,-26.447184,0.526765
22.501552,-34.748908,1.849807
22.501552,-33.248908,1.849807
22.501552,-31.748908,1.849807
22.501552,-30.248908,1.849807
22.501552,-28.748908,1.849807
22.501552,-27.248908,1.849807
22.501552,-25.748908,1.849807
22.501552,-35.158651,3.172849
22.501552,-33.658651,3.172849
22.501552,-32.158651,3.172849
22.501552,-30.658651,3.172849
22.501552,-29.158651,3.172849
22.501552,-27.658651,3.172849
22.501552,-26.158651,3.172849
22.501552,-24.658651,3.172849
22.501552,-35.403426,4.495891
22.501552,-33.903426,4.495891
22.501552,-32.403426,4.495891
22.501552,-30.903426,4.495891
22.501552,-29.403426,4.495891
22.501552,-27.903426,4.495891
22.501552,-26.403426,4.495891
22.501552,-24.903426,4.495891
22.501552,-35.660322,5.818932
22.501552,-34.160322,5.818932
22.501552,-32.660322,5.818932
22.501552,-31.160322,5.818932
22.501552,-29.660322,5.818932
22.501552,-28.160322,5.818932
22.501552,-26.660322,5.818932
22.501552,-25.160322,5.818932
22.501552,-36.056505,7.141974
22.501552,-34.556505,7.141974
22.501552,-33.056505,7.141974
22.501552,-31.556505,7.141974
22.501552,-30.056505,7.141974
22.501552,-28.556505,7.141974
22.501552,-27.056505,7.141974
22.501552,-25.556505,7.141974
22.501552,-36.669215,8.465016
22.501552,-35.169215,8.465016
22.501552,-33.669215,8.465016
22.501552,-32.169215,8.465016
22.501552,-30.669215,8.465016
22.501552,-29.169215,8.465016
22.501552,-27.669215,8.465016
22.501552,-26.169215,8.465016
22.501552,-37.525773,9.788058
22.501552,-36.025773,9.788058
22.501552,-34.525773,9.788058
22.501552,-33.025773,9.788058
22.501552,-31.525773,9.788058
22.501552,-30.025773,9.788058
22.501552,-28.525773,9.788058
22.501552,-27.025773,9.788058
22.501552,-38.603571,11.111099
22.501552,-37.103571,11.111099
22.501552,-35.603571,11.111099
22.501552,-34.103571,11.111099
22.501552,-32.603571,11.111099
22.501552,-31.103571,11.111099
22.501552,-29.603571,11.111099
22.501552,-28.103571,11.111099
22.501552,-39.830082,12.434141
22.501552,-38.330082,12.434141
22.501552,-36.830082,12.434141
22.501552,-35.330082,12.434141
22.501552,-33.830082,12.434141
22.501552,-32.330082,12.434141
22.501552,-30.830082,12.434141
22.501552,-29.330082,12.434141
22.501552,-41.082853,13.757183
22.501552,-39.582853,13.757183
22.501552,-38.082853,13.757183
22.501552,-36.582853,13.757183
22.501552,-35.082853,13.757183
22.501552,-33.582853,13.757183
22.501552,-32.082853,13.757183
22.501552,-42.189509,15.080225
22.501552,-40.689509,15.080225
22.501552,-39.189509,15.080225
22.501552,-37.689509,15.080225
22.501552,-36.189509,15.080225
22.501552,-34.689509,15.080225
22.501552,-33.189509,15.080225
22.501552,-42.927751,16.403266
22.501552,-41.427751,16.403266
22.501552,-39.927751,16.403266
22.501552,-38.427751,16.403266
22.501552,-36.927751,16.403266
22.501552,-35.427751,16.403266
22.501552,-43.025355,17.726308
22.501552,-41.525355,17.726308
22.501552,-40.025355,17.726308
22.501552,-38.525355,17.726308
22.501552,-37.025355,17.726308
22.501552,-42.160176,19.049350
22.501552,-40.660176,19.049350
22.501552,-39.160176,19.049350
21.911525,-34.214946,0.530077
21.911525,-32.714946,0.530077
21.911525,-31.214946,0.530077
21.911525,-29.714946,0.530077
21.911525,-28.214946,0.530077
21.911525,-26.714946,0.530077
21.911525,-35.002034,1.877710
21.911525,-33.502034,1.877710
21.911525,-32.002034,1.877710
21.911525,-30.502034,1.877710
21.911525,-29.002034,1.877710
21.911525,-27.502034,1.877710
21.911525,-26.002034,1.877710
21.911525,-35.382432,3.225343
21.911525,-33.882432,3.225343
21.911525,-32.382432,3.225343
21.911525,-30.882432,3.225343
21.911525,-29.382432,3.225343
21.911525,-27.882432,3.225343
21.911525,-26.382432,3.225343
21.911525,-24.882432,3.225343
21.911525,-35.594953,4.572976
21.911525,-34.094953,4.572976
21.911525,-32.594953,4.572976
21.911525,-31.094953,4.572976
21.911525,-29.594953,4.572976
21.911525,-28.094953,4.572976
21.911525,-26.594953,4.572976
21.911525,-25.094953,4.572976
21.911525,-35.824669,5.920609
21.911525,-34.324669,5.920609
21.911525,-32.824669,5.920609
21.911525,-31.324669,5.920609
21.911525,-29.824669,5.920609
21.911525,-28.324669,5.920609
21.911525,-26.824669,5.920609
21.911525,-25.324669,5.920609
21.911525,-36.202911,7.268243
21.911525,-34.702911,7.268243
21.911525,-33.202911,7.268243
21.911525,-31.702911,7.268243
21.911525,-30.202911,7.268243
21.911525,-28.702911,7.268243
21.911525,-27.202911,7.268243
21.911525,-25.702911,7.268243
21.911525,-36.807271,8.615876
21.911525,-35.307271,8.615876
21.911525,-33.807271,8.615876
21.911525,-32.307271,8.615876
21.911525,-30.807271,8.615876
21.911525,-29.307271,8.615876
21.911525,-27.807271,8.615876
21.911525,-26.307271,8.615876
21.911525,-37.661602,9.963509
21.911525,-36.161602,9.963509
21.911525,-34.661602,9.963509
21.911525,-33.161602,9.963509
21.911525,-31.661602,9.963509
21.911525,-30.161602,9.963509
21.911525,-28.661602,9.963509
21.911525,-27.161602,9.963509
21.911525,-38.736015,11.311142
21.911525,-37.236015,11.311142
21.911525,-35.736015,11.311142
21.911525,-34.236015,11.311142
21.911525,-32.736015,11.311142
21.911525,-31.236015,11.311142
21.911525,-29.736015,11.311142
21.911525,-28.236015,11.311142
21.911525,-39.946882,12.658775
21.911525,-38.446882,12.658775
21.911525,-36.946882,12.658775
21.911525,-35.446882,12.658775
21.911525,-33.946882,12.658775
21.911525,-32.446882,12.658775
21.911525,-30.946882,12.658775
21.911525,-29.446882,12.658775
21.911525,-41.156835,14.006408
21.911525,-39.656835,14.006408
21.911525,-38.156835,14.006408
21.911525,-36.656835,14.006408
21.911525,-35.156835,14.006408
21.911525,-33.656835,14.006408
21.911525,-32.156835,14.006408
21.911525,-42.174767,15.354041
21.911525,-40.674767,15.354041
21.911525,-39.174767,15.354041
21.911525,-37.674767,15.354041
21.911525,-36.174767,15.354041
21.911525,-34.674767,15.354041
21.911525,-33.174767,15.354041
21.911525,-42.755829,16.701675
21.911525,-41.255829,16.701675
21.911525,-39.755829,16.701675
21.911525,-38.255829,16.701675
21.911525,-36.755829,16.701675
21.911525,-35.255829,16.701675
21.911525,-42.601434,18.049308
21.911525,-41.101434,18.049308
21.911525,-39.601434,18.049308
21.911525,-38.101434,18.049308
21.911525,-41.359253,19.396941
21.911525,-39.859253,19.396941
21.911525,-38.359253,19.396941
21.600985,-34.362604,0.531548
21.600985,-32.862604,0.531548
21.600985,-31.362604,0.531548
21.600985,-29.862604,0.531548
21.600985,-28.362604,0.531548
21.600985,-26.862604,0.531548
21.600985,-25.362604,0.531548
21.600985,-35.139127,1.890457
21.600985,-33.639127,1.890457
21.600985,-32.139127,1.890457
21.600985,-30.639127,1.890457
21.600985,-29.139127,1.890457
21.600985,-27.639127,1.890457
21.600985,-26.139127,1.890457
21.600985,-35.501444,3.249365
21.600985,-34.001444,3.249365
21.600985,-32.501444,3.249365
21.600985,-31.001444,3.249365
21.600985,-29.501444,3.249365
21.600985,-28.001444,3.249365
21.600985,-26.501444,3.249365
21.600985,-25.001444,3.249365
21.600985,-35.693932,4.608274
21.600985,-34.193932,4.608274
21.600985,-32.693932,4.608274
21.600985,-31.193932,4.608274
21.600985,-29.693932,4.608274
21.600985,-28.193932,4.608274
21.600985,-26.693932,4.608274
21.600985,-25.193932,4.608274
21.600985,-35.905409,5.967183
21.600985,-34.405409,5.967183
21.600985,-32.905409,5.967183
21.600985,-31.405409,5.967183
21.600985,-29.905409,5.967183
21.600985,-28.405409,5.967183
21.600985,-26.905409,5.967183
21.600985,-25.405409,5.967183
21.600985,-36.269132,7.326092
21.600985,-34.769132,7.326092
21.600985,-33.269132,7.326092
21.600985,-31.769132,7.326092
21.600985,-30.269132,7.326092
21.600985,-28.769132,7.326092
21.600985,-27.269132,7.326092
21.600985,-25.769132,7.326092
21.600985,-36.862796,8.685001
21.600985,-35.362796,8.685001
21.600985,-33.862796,8.685001
21.600985,-32.362796,8.685001
21.600985,-30.862796,8.685001
21.600985,-29.362796,8.685001
21.600985,-27.862796,8.685001
21.600985,-26.362796,8.685001
21.600985,-37.708535,10.043910
21.600985,-36.208535,10.043910
21.600985,-34.708535,10.043910
21.600985,-33.208535,10.043910
21.600985,-31.708535,10.043910
21.600985,-30.208535,10.043910
21.600985,-28.708535,10.043910
21.600985,-27.208535,10.043910
21.600985,-38.772920,11.402818
21.600985,-37.272920,11.402818
21.600985,-35.772920,11.402818
21.600985,-34.272920,11.402818
21.600985,-32.772920,11.402818
21.600985,-31.272920,11.402818
21.600985,-29.772920,11.402818
21.600985,-28.272920,11.402818
21.600985,-39.966963,12.761727
21.600985,-38.466963,12.761727
21.600985,-36.966963,12.761727
21.600985,-35.466963,12.761727
21.600985,-33.966963,12.761727
21.600985,-32.466963,12.761727
21.600985,-30.966963,12.761727
21.600985,-29.466963,12.761727
21.600985,-41.146115,14.120636
21.600985,-39.646115,14.120636
21.600985,-38.146115,14.120636
21.600985,-36.646115,14.120636
21.600985,-35.146115,14.120636
21.600985,-33.646115,14.120636
21.600985,-32.146115,14.120636
21.600985,-42.110263,15.479545
21.600985,-40.610263,15.479545
21.600985,-39.110263,15.479545
21.600985,-37.610263,15.479545
21.600985,-36.110263,15.479545
21.600985,-34.610263,15.479545
21.600985,-33.110263,15.479545
21.600985,-42.603736,16.838454
21.600985,-41.103736,16.838454
21.600985,-39.603736,16.838454
21.600985,-38.103736,16.838454
21.600985,-36.603736,16.838454
21.600985,-35.103736,16.838454
21.600985,-42.315299,18.197362
21.600985,-40.815299,18.197362
21.600985,-39.315299,18.197362
21.600985,-37.815299,18.197362
21.600985,-40.878157,19.556271
21.600985,-39.378157,19.556271
21.600985,-37.878157,19.556271
20.979905,-34.669882,0.533845
20.979905,-33.169882,0.533845
20.979905,-31.669882,0.533845
20.979905,-30.169882,0.533845
20.979905,-28.669882,0.533845
20.979905,-27.169882,0.533845
20.979905,-25.669882,0.533845
20.979905,-35.419064,1.911473
20.979905,-33.919064,1.911473
20.979905,-32.419064,1.911473
20.979905,-30.919064,1.911473
20.979905,-29.419064,1.911473
20.979905,-27.919064,1.911473
20.979905,-26.419064,1.911473
20.979905,-24.919064,1.911473
20.979905,-35.739606,3.289100
20.979905,-34.239606,3.289100
20.979905,-32.739606,3.289100
20.979905,-31.239606,3.289100
20.979905,-29.739606,3.289100
20.979905,-28.239606,3.289100
20.979905,-26.739606,3.289100
20.979905,-25.239606,3.289100
20.979905,-35.885401,4.666727
20.979905,-34.385401,4.666727
20.979905,-32.885401,4.666727
20.979905,-31.385401,4.666727
20.979905,-29.885401,4.666727
20.979905,-28.385401,4.666727
20.979905,-26.885401,4.666727
20.979905,-25.385401,4.666727
20.979905,-36.051656,6.044354
20.979905,-34.551656,6.044354
20.979905,-33.051656,6.044354
20.979905,-31.551656,6.044354
20.979905,-30.051656,6.044354
20.979905,-28.551656,6.044354
20.979905,-27.051656,6.044354
20.979905,-25.551656,6.044354
20.979905,-24.051656,6.044354
20.979905,-36.374893,7.421982
20.979905,-34.874893,7.421982
20.979905,-33.374893,7.421982
20.979905,-31.874893,7.421982
20.979905,-30.374893,7.421982
20.979905,-28.874893,7.421982
20.979905,-27.374893,7.421982
20.979905,-25.874893,7.421982
20.979905,-24.374893,7.421982
20.979905,-36.932946,8.799609
20.979905,-35.432946,8.799609
20.979905,-33.932946,8.799609
20.979905,-32.432946,8.799609
20.979905,-30.932946,8.799609
20.979905,-29.432946,8.799609
20.979905,-27.932946,8.799609
20.979905,-26.432946,8.799609
20.979905,-37.744964,10.177236
20.979905,-36.244964,10.177236
20.979905,-34.744964,10.177236
20.979905,-33.244964,10.177236
20.979905,-31.744964,10.177236
20.979905,-30.244964,10.177236
20.979905,-28.744964,10.177236
20.979905,-27.244964,10.177236
20.979905,-38.771407,11.554864
20.979905,-37.271407,11.554864
20.979905,-35.771407,11.554864
20.979905,-34.271407,11.554864
20.979905,-32.771407,11.554864
20.979905,-31.271407,11.554864
20.979905,-29.771407,11.554864
20.979905,-28.271407,11.554864
20.979905,-39.914052,12.932491
20.979905,-38.414052,12.932491
20.979905,-36.914052,12.932491
20.979905,-35.414052,12.932491
20.979905,-33.914052,12.932491
20.979905,-32.414052,12.932491
20.979905,-30.914052,12.932491
20.979905,-29.414052,12.932491
20.979905,-41.015987,14.310118
20.979905,-39.515987,14.310118
20.979905,-38.015987,14.310118
20.979905,-36.515987,14.310118
20.979905,-35.015987,14.310118
20.979905,-33.515987,14.310118
20.979905,-32.015987,14.310118
20.979905,-41.861614,15.687745
20.979905,-40.361614,15.687745
20.979905,-38.861614,15.687745
20.979905,-37.361614,15.687745
20.979905,-35.861614,15.687745
20.979905,-34.361614,15.687745
20.979905,-32.861614,15.687745
20.979905,-42.176649,17.065373
20.979905,-40.676649,17.065373
20.979905,-39.176649,17.065373
20.979905,-37.676649,17.065373
20.979905,-36.176649,17.065373
20.979905,-34.676649,17.065373
20.979905,-41.628122,18.443000
20.979905,-40.128122,18.443000
20.979905,-38.628122,18.443000
20.979905,-37.128122,18.443000
20.979905,-39.824375,19.820627
20.979905,-38.324375,19.820627
19.551420,-35.420160,0.535471
19.551420,-33.920160,0.535471
19.551420,-32.420160,0.535471
19.551420,-30.920160,0.535471
19.551420,-29.420160,0.535471
19.551420,-27.920160,0.535471
19.551420,-26.420160,0.535471
19.551420,-36.073704,1.933808
19.551420,-34.573704,1.933808
19.551420,-33.073704,1.933808
19.551420,-31.573704,1.933808
19.551420,-30.073704,1.933808
19.551420,-28.573704,1.933808
19.551420,-27.073704,1.933808
19.551420,-25.573704,1.933808
19.551420,-36.269956,3.332145
19.551420,-34.769956,3.332145
19.551420,-33.269956,3.332145
19.551420,-31.769956,3.332145
19.551420,-30.269956,3.332145
19.551420,-28.769956,3.332145
19.551420,-27.269956,3.332145
19.551420,-25.769956,3.332145
19.551420,-36.274349,4.730482
19.551420,-34.774349,4.730482
19.551420,-33.274349,4.730482
19.551420,-31.774349,4.730482
19.551420,-30.274349,4.730482
19.551420,-28.774349,4.730482
19.551420,-27.274349,4.730482
19.551420,-25.774349,4.730482
19.551420,-24.274349,4.730482
19.551420,-36.290021,6.128819
19.551420,-34.790021,6.128819
19.551420,-33.290021,6.128819
19.551420,-31.790021,6.128819
19.551420,-30.290021,6.128819
19.551420,-28.790021,6.128819
19.551420,-27.290021,6.128819
19.551420,-25.790021,6.128819
19.551420,-24.290021,6.128819
19.551420,-36.457813,7.527156
19.551420,-34.957813,7.527156
19.551420,-33.457813,7.527156
19.551420,-31.957813,7.527156
19.551420,-30.457813,7.527156
19.551420,-28.957813,7.527156
19.551420,-27.457813,7.527156
19.551420,-25.957813,7.527156
19.551420,-24.457813,7.527156
19.551420,-36.856272,8.925493
19.551420,-35.356272,8.925493
19.551420,-33.856272,8.925493
19.551420,-32.356272,8.925493
19.551420,-30.856272,8.925493
19.551420,-29.356272,8.925493
19.551420,-27.856272,8.925493
19.551420,-26.356272,8.925493
19.551420,-24.856272,8.925493
19.551420,-37.501648,10.323830
19.551420,-36.001648,10.323830
19.551420,-34.501648,10.323830
19.551420,-33.001648,10.323830
19.551420,-31.501648,10.323830
19.551420,-30.001648,10.323830
19.551420,-28.501648,10.323830
19.551420,-27.001648,10.323830
19.551420,-38.347896,11.722167
19.551420,-36.847896,11.722167
19.551420,-35.347896,11.722167
19.551420,-33.847896,11.722167
19.551420,-32.347896,11.722167
19.551420,-30.847896,11.722167
19.551420,-29.347896,11.722167
19.551420,-27.847896,11.722167
19.551420,-39.286674,13.120504
19.551420,-37.786674,13.120504
19.551420,-36.286674,13.120504
19.551420,-34.786674,13.120504
19.551420,-33.286674,13.120504
19.551420,-31.786674,13.120504
19.551420,-30.286674,13.120504
19.551420,-28.786674,13.120504
19.551420,-40.147346,14.518841
19.551420,-38.647346,14.518841
19.551420,-37.147346,14.518841
19.551420,-35.647346,14.518841
19.551420,-34.147346,14.518841
19.551420,-32.647346,14.518841
19.551420,-31.147346,14.518841
19.551420,-40.696980,15.917178
19.551420,-39.196980,15.917178
19.551420,-37.696980,15.917178
19.551420,-36.196980,15.917178
19.551420,-34.696980,15.917178
19.551420,-33.196980,15.917178
19.551420,-40.640346,17.315515
19.551420,-39.140346,17.315515
19.551420,-37.640346,17.315515
19.551420,-36.140346,17.315515
19.551420,-34.640346,17.315515
19.551420,-39.619921,18.713852
19.551420,-38.119921,18.713852
19.551420,-36.619921,18.713852
19.551420,-35.119921,18.713852
19.551420,-37.215886,20.112189
19.551420,-35.715886,20.112189
17.004990,-36.776271,0.525783
17.004990,-35.276271,0.525783
17.004990,-33.776271,0.525783
17.004990,-32.276271,0.525783
17.004990,-30.776271,0.525783
17.004990,-29.276271,0.525783
17.004990,-27.776271,0.525783
17.004990,-37.151834,1.865151
17.004990,-35.651834,1.865151
17.004990,-34.151834,1.865151
17.004990,-32.651834,1.865151
17.004990,-31.151834,1.865151
17.004990,-29.651834,1.865151
17.004990,-28.151834,1.865151
17.004990,-26.651834,1.865151
17.004990,-37.050955,3.204519
17.004990,-35.550955,3.204519
17.004990,-34.050955,3.204519
17.004990,-32.550955,3.204519
17.004990,-31.050955,3.204519
17.004990,-29.550955,3.204519
17.004990,-28.050955,3.204519
17.004990,-26.550955,3.204519
17.004990,-36.712874,4.543887
17.004990,-35.212874,4.543887
17.004990,-33.712874,4.543887
17.004990,-32.212874,4.543887
17.004990,-30.712874,4.543887
17.004990,-29.212874,4.543887
17.004990,-27.712874,4.543887
17.004990,-26.212874,4.543887
17.004990,-24.712874,4.543887
17.004990,-36.324399,5.883255
17.004990,-34.824399,5.883255
17.004990,-33.324399,5.883255
17.004990,-31.824399,5.883255
