-21.794700,-24.713387,9.282994
-21.794700,-36.228473,10.535250
-21.794700,-34.728473,10.535250
-21.794700,-33.228473,10.535250
-21.794700,-31.728473,10.535250
-21.794700,-30.228473,10.535250
-21.794700,-28.728473,10.535250
-21.794700,-27.228473,10.535250
-21.794700,-25.728473,10.535250
-21.794700,-37.412652,11.787507
-21.794700,-35.912652,11.787507
-21.794700,-34.412652,11.787507
-21.794700,-32.912652,11.787507
-21.794700,-31.412652,11.787507
-21.794700,-29.912652,11.787507
-21.794700,-28.412652,11.787507
-21.794700,-38.680702,13.039763
-21.794700,-37.180702,13.039763
-21.794700,-35.680702,13.039763
-21.794700,-34.180702,13.039763
-21.794700,-32.680702,13.039763
-21.794700,-31.180702,13.039763
-21.794700,-29.680702,13.039763
-21.794700,-39.907330,14.292020
-21.794700,-38.407330,14.292020
-21.794700,-36.907330,14.292020
-21.794700,-35.407330,14.292020
-21.794700,-33.907330,14.292020
-21.794700,-32.407330,14.292020
-21.794700,-30.907330,14.292020
-21.794700,-40.927182,15.544277
-21.794700,-39.427182,15.544277
-21.794700,-37.927182,15.544277
-21.794700,-36.427182,15.544277
-21.794700,-34.927182,15.544277
-21.794700,-33.427182,15.544277
-21.794700,-41.534833,16.796533
-21.794700,-40.034833,16.796533
-21.794700,-38.534833,16.796533
-21.794700,-37.034833,16.796533
-21.794700,-35.534833,16.796533
-21.794700,-41.484793,18.048790
-21.794700,-39.984793,18.048790
-21.794700,-38.484793,18.048790
-21.794700,-36.984793,18.048790
-19.913942,-32.537352,0.531435
-19.913942,-31.037352,0.531435
-19.913942,-29.537352,0.531435
-19.913942,-28.037352,0.531435
-19.913942,-26.537352,0.531435
-19.913942,-25.037352,0.531435
-19.913942,-23.537352,0.531435
-19.913942,-33.314815,1.889468
-19.913942,-31.814815,1.889468
-19.913942,-30.314815,1.889468
-19.913942,-28.814815,1.889468
-19.913942,-27.314815,1.889468
-19.913942,-25.814815,1.889468
-19.913942,-24.314815,1.889468
-19.913942,-33.678680,3.247500
-19.913942,-32.178680,3.247500
-19.913942,-30.678680,3.247500
-19.913942,-29.178680,3.247500
-19.913942,-27.678680,3.247500
-19.913942,-26.178680,3.247500
-19.913942,-24.678680,3.247500
-19.913942,-23.178680,3.247500
-19.913942,-33.872888,4.605533
-19.913942,-32.372888,4.605533
-19.913942,-30.872888,4.605533
-19.913942,-29.372888,4.605533
-19.913942,-27.872888,4.605533
-19.913942,-26.372888,4.605533
-19.913942,-24.872888,4.605533
-19.913942,-23.372888,4.605533
-19.913942,-34.085964,5.963566
-19.913942,-32.585964,5.963566
-19.913942,-31.085964,5.963566
-19.913942,-29.585964,5.963566
-19.913942,-28.085964,5.963566
-19.913942,-26.585964,5.963566
-19.913942,-25.085964,5.963566
-19.913942,-23.585964,5.963566
-19.913942,-34.451013,7.321598
-19.913942,-32.951013,7.321598
-19.913942,-31.451013,7.321598
-19.913942,-29.951013,7.321598
-19.913942,-28.451013,7.321598
-19.913942,-26.951013,7.321598
-19.913942,-25.451013,7.321598
-19.913942,-23.951013,7.321598
-19.913942,-35.045724,8.679631
-19.913942,-33.545724,8.679631
-19.913942,-32.045724,8.679631
-19.913942,-30.545724,8.679631
-19.913942,-29.045724,8.679631
-19.913942,-27.545724,8.679631
-19.913942,-26.045724,8.679631
-19.913942,-24.545724,8.679631
-19.913942,-35.892366,10.037663
-19.913942,-34.392366,10.037663
-19.913942,-32.892366,10.037663
-19.913942,-31.392366,10.037663
-19.913942,-29.892366,10.037663
-19.913942,-28.392366,10.037663
-19.913942,-26.892366,10.037663
-19.913942,-25.392366,10.037663
-19.913942,-36.957792,11.395696
-19.913942,-35.457792,11.395696
-19.913942,-33.957792,11.395696
-19.913942,-32.457792,11.395696
-19.913942,-30.957792,11.395696
-19.913942,-29.457792,11.395696
-19.913942,-27.957792,11.395696
-19.913942,-26.457792,11.395696
-19.913942,-38.153435,12.753728
-19.913942,-36.653435,12.753728
-19.913942,-35.153435,12.753728
-19.913942,-33.653435,12.753728
-19.913942,-32.153435,12.753728
-19.913942,-30.653435,12.753728
-19.913942,-29.153435,12.753728
-19.913942,-27.653435,12.753728
-19.913942,-39.335310,14.111761
-19.913942,-37.835310,14.111761
-19.913942,-36.335310,14.111761
-19.913942,-34.835310,14.111761
-19.913942,-33.335310,14.111761
-19.913942,-31.835310,14.111761
-19.913942,-30.335310,14.111761
-19.913942,-40.304015,15.469794
-19.913942,-38.804015,15.469794
-19.913942,-37.304015,15.469794
-19.913942,-35.804015,15.469794
-19.913942,-34.304015,15.469794
-19.913942,-32.804015,15.469794
-19.913942,-31.304015,15.469794
-19.913942,-40.804729,16.827826
-19.913942,-39.304729,16.827826
-19.913942,-37.804729,16.827826
-19.913942,-36.304729,16.827826
-19.913942,-34.804729,16.827826
-19.913942,-33.304729,16.827826
-19.913942,-40.527215,18.185859
-19.913942,-39.027215,18.185859
-19.913942,-37.527215,18.185859
-19.913942,-36.027215,18.185859
-19.913942,-39.105814,19.543891
-19.913942,-37.605814,19.543891
-19.913942,-36.105814,19.543891
-18.357452,-33.493353,0.535567
-18.357452,-31.993353,0.535567
-18.357452,-30.493353,0.535567
-18.357452,-28.993353,0.535567
-18.357452,-27.493353,0.535567
-18.357452,-25.993353,0.535567
-18.357452,-24.493353,0.535567
-18.357452,-34.163988,1.932998
-18.357452,-32.663988,1.932998
-18.357452,-31.163988,1.932998
-18.357452,-29.663988,1.932998
-18.357452,-28.163988,1.932998
-18.357452,-26.663988,1.932998
-18.357452,-25.163988,1.932998
-18.357452,-23.663988,1.932998
-18.357452,-34.381049,3.330430
-18.357452,-32.881049,3.330430
-18.357452,-31.381049,3.330430
-18.357452,-29.881049,3.330430
-18.357452,-28.381049,3.330430
-18.357452,-26.881049,3.330430
-18.357452,-25.381049,3.330430
-18.357452,-23.881049,3.330430
-18.357452,-34.409308,4.727861
-18.357452,-32.909308,4.727861
-18.357452,-31.409308,4.727861
-18.357452,-29.909308,4.727861
-18.357452,-28.409308,4.727861
-18.357452,-26.909308,4.727861
-18.357452,-25.409308,4.727861
-18.357452,-23.909308,4.727861
-18.357452,-22.409308,4.727861
-18.357452,-34.451401,6.125292
-18.357452,-32.951401,6.125292
-18.357452,-31.451401,6.125292
-18.357452,-29.951401,6.125292
-18.357452,-28.451401,6.125292
-18.357452,-26.951401,6.125292
-18.357452,-25.451401,6.125292
-18.357452,-23.951401,6.125292
-18.357452,-22.451401,6.125292
-18.357452,-34.647830,7.522723
-18.357452,-33.147830,7.522723
-18.357452,-31.647830,7.522723
-18.357452,-30.147830,7.522723
-18.357452,-28.647830,7.522723
-18.357452,-27.147830,7.522723
-18.357452,-25.647830,7.522723
-18.357452,-24.147830,7.522723
-18.357452,-22.647830,7.522723
-18.357452,-35.076962,8.920155
-18.357452,-33.576962,8.920155
-18.357452,-32.076962,8.920155
-18.357452,-30.576962,8.920155
-18.357452,-29.076962,8.920155
-18.357452,-27.576962,8.920155
-18.357452,-26.076962,8.920155
-18.357452,-24.576962,8.920155
-18.357452,-23.076962,8.920155
-18.357452,-35.755030,10.317586
-18.357452,-34.255030,10.317586
-18.357452,-32.755030,10.317586
-18.357452,-31.255030,10.317586
-18.357452,-29.755030,10.317586
-18.357452,-28.255030,10.317586
-18.357452,-26.755030,10.317586
-18.357452,-25.255030,10.317586
-18.357452,-36.636134,11.715017
-18.357452,-35.136134,11.715017
-18.357452,-33.636134,11.715017
-18.357452,-32.136134,11.715017
-18.357452,-30.636134,11.715017
-18.357452,-29.136134,11.715017
-18.357452,-27.636134,11.715017
-18.357452,-26.136134,11.715017
-18.357452,-37.612236,13.112449
-18.357452,-36.112236,13.112449
-18.357452,-34.612236,13.112449
-18.357452,-33.112236,13.112449
-18.357452,-31.612236,13.112449
-18.357452,-30.112236,13.112449
-18.357452,-28.612236,13.112449
-18.357452,-27.112236,13.112449
-18.357452,-38.513167,14.509880
-18.357452,-37.013167,14.509880
-18.357452,-35.513167,14.509880
-18.357452,-34.013167,14.509880
-18.357452,-32.513167,14.509880
-18.357452,-31.013167,14.509880
-18.357452,-29.513167,14.509880
-18.357452,-39.106621,15.907311
-18.357452,-37.606621,15.907311
-18.357452,-36.106621,15.907311
-18.357452,-34.606621,15.907311
-18.357452,-33.106621,15.907311
-18.357452,-31.606621,15.907311
-18.357452,-39.098160,17.304742
-18.357452,-37.598160,17.304742
-18.357452,-36.098160,17.304742
-18.357452,-34.598160,17.304742
-18.357452,-33.098160,17.304742
-18.357452,-38.131209,18.702174
-18.357452,-36.631209,18.702174
-18.357452,-35.131209,18.702174
-18.357452,-33.631209,18.702174
-18.357452,-35.787060,20.099605
-18.357452,-34.287060,20.099605
-17.449499,-34.080837,0.533837
-17.449499,-32.580837,0.533837
-17.449499,-31.080837,0.533837
-17.449499,-29.580837,0.533837
-17.449499,-28.080837,0.533837
-17.449499,-26.580837,0.533837
-17.449499,-25.080837,0.533837
-17.449499,-34.653231,1.927048
-17.449499,-33.153231,1.927048
-17.449499,-31.653231,1.927048
-17.449499,-30.153231,1.927048
-17.449499,-28.653231,1.927048
-17.449499,-27.153231,1.927048
-17.449499,-25.653231,1.927048
-17.449499,-24.153231,1.927048
-17.449499,-34.755683,3.320260
-17.449499,-33.255683,3.320260
-17.449499,-31.755683,3.320260
-17.449499,-30.255683,3.320260
-17.449499,-28.755683,3.320260
-17.449499,-27.255683,3.320260
-17.449499,-25.755683,3.320260
-17.449499,-24.255683,3.320260
-17.449499,-22.755683,3.320260
-17.449499,-34.651960,4.713471
-17.449499,-33.151960,4.713471
-17.449499,-31.651960,4.713471
-17.449499,-30.151960,4.713471
-17.449499,-28.651960,4.713471
-17.449499,-27.151960,4.713471
-17.449499,-25.651960,4.713471
-17.449499,-24.151960,4.713471
-17.449499,-22.651960,4.713471
-17.449499,-34.544443,6.106682
-17.449499,-33.044443,6.106682
-17.449499,-31.544443,6.106682
-17.449499,-30.044443,6.106682
-17.449499,-28.544443,6.106682
-17.449499,-27.044443,6.106682
-17.449499,-25.544443,6.106682
-17.449499,-24.044443,6.106682
-17.449499,-22.544443,6.106682
-17.449499,-34.574124,7.499894
-17.449499,-33.074124,7.499894
-17.449499,-31.574124,7.499894
-17.449499,-30.074124,7.499894
-17.449499,-28.574124,7.499894
-17.449499,-27.074124,7.499894
-17.449499,-25.574124,7.499894
-17.449499,-24.074124,7.499894
-17.449499,-22.574124,7.499894
-17.449499,-34.820609,8.893105
-17.449499,-33.320609,8.893105
-17.449499,-31.820609,8.893105
-17.449499,-30.320609,8.893105
-17.449499,-28.820609,8.893105
-17.449499,-27.320609,8.893105
-17.449499,-25.820609,8.893105
-17.449499,-24.320609,8.893105
-17.449499,-35.302116,10.286316
-17.449499,-33.802116,10.286316
-17.449499,-32.302116,10.286316
-17.449499,-30.802116,10.286316
-17.449499,-29.302116,10.286316
-17.449499,-27.802116,10.286316
-17.449499,-26.302116,10.286316
-17.449499,-24.802116,10.286316
-17.449499,-35.975475,11.679528
-17.449499,-34.475475,11.679528
-17.449499,-32.975475,11.679528
-17.449499,-31.475475,11.679528
-17.449499,-29.975475,11.679528
-17.449499,-28.475475,11.679528
-17.449499,-26.975475,11.679528
-17.449499,-25.475475,11.679528
-17.449499,-36.736131,13.072739
-17.449499,-35.236131,13.072739
-17.449499,-33.736131,13.072739
-17.449499,-32.236131,13.072739
-17.449499,-30.736131,13.072739
-17.449499,-29.236131,13.072739
-17.449499,-27.736131,13.072739
-17.449499,-37.418138,14.465951
-17.449499,-35.918138,14.465951
-17.449499,-34.418138,14.465951
-17.449499,-32.918138,14.465951
-17.449499,-31.418138,14.465951
-17.449499,-29.918138,14.465951
-17.449499,-28.418138,14.465951
-17.449499,-37.794167,15.859162
-17.449499,-36.294167,15.859162
-17.449499,-34.794167,15.859162
-17.449499,-33.294167,15.859162
-17.449499,-31.794167,15.859162
-17.449499,-30.294167,15.859162
-17.449499,-37.575498,17.252373
-17.449499,-36.075498,17.252373
-17.449499,-34.575498,17.252373
-17.449499,-33.075498,17.252373
-17.449499,-31.575498,17.252373
-17.449499,-36.412025,18.645585
-17.449499,-34.912025,18.645585
-17.449499,-33.412025,18.645585
-17.449499,-31.912025,18.645585
-17.449499,-33.892255,20.038796
-17.449499,-32.392255,20.038796
-16.541547,-34.662171,0.529239
-16.541547,-33.162171,0.529239
-16.541547,-31.662171,0.529239
-16.541547,-30.162171,0.529239
-16.541547,-28.662171,0.529239
-16.541547,-27.162171,0.529239
-16.541547,-25.662171,0.529239
-16.541547,-35.112021,1.894450
-16.541547,-33.612021,1.894450
-16.541547,-32.112021,1.894450
-16.541547,-30.612021,1.894450
-16.541547,-29.112021,1.894450
-16.541547,-27.612021,1.894450
-16.541547,-26.112021,1.894450
-16.541547,-24.612021,1.894450
-16.541547,-35.084412,3.259660
-16.541547,-33.584412,3.259660
-16.541547,-32.084412,3.259660
-16.541547,-30.584412,3.259660
-16.541547,-29.084412,3.259660
-16.541547,-27.584412,3.259660
-16.541547,-26.084412,3.259660
-16.541547,-24.584412,3.259660
-16.541547,-23.084412,3.259660
-16.541547,-34.830430,4.624870
-16.541547,-33.330430,4.624870
-16.541547,-31.830430,4.624870
-16.541547,-30.330430,4.624870
-16.541547,-28.830430,4.624870
-16.541547,-27.330430,4.624870
-16.541547,-25.830430,4.624870
-16.541547,-24.330430,4.624870
-16.541547,-22.830430,4.624870
-16.541547,-34.544561,5.990080
-16.541547,-33.044561,5.990080
-16.541547,-31.544561,5.990080
-16.541547,-30.044561,5.990080
-16.541547,-28.544561,5.990080
-16.541547,-27.044561,5.990080
-16.541547,-25.544561,5.990080
-16.541547,-24.044561,5.990080
-16.541547,-22.544561,5.990080
-16.541547,-34.364691,7.355291
-16.541547,-32.864691,7.355291
-16.541547,-31.364691,7.355291
-16.541547,-29.864691,7.355291
-16.541547,-28.364691,7.355291
-16.541547,-26.864691,7.355291
-16.541547,-25.364691,7.355291
-16.541547,-23.864691,7.355291
-16.541547,-34.372109,8.720501
-16.541547,-32.872109,8.720501
-16.541547,-31.372109,8.720501
-16.541547,-29.872109,8.720501
-16.541547,-28.372109,8.720501
-16.541547,-26.872109,8.720501
-16.541547,-25.372109,8.720501
-16.541547,-23.872109,8.720501
-16.541547,-34.591503,10.085711
-16.541547,-33.091503,10.085711
-16.541547,-31.591503,10.085711
-16.541547,-30.091503,10.085711
-16.541547,-28.591503,10.085711
-16.541547,-27.091503,10.085711
-16.541547,-25.591503,10.085711
-16.541547,-24.091503,10.085711
-16.541547,-34.990962,11.450921
-16.541547,-33.490962,11.450921
-16.541547,-31.990962,11.450921
-16.541547,-30.490962,11.450921
-16.541547,-28.990962,11.450921
-16.541547,-27.490962,11.450921
-16.541547,-25.990962,11.450921
-16.541547,-35.481978,12.816132
-16.541547,-33.981978,12.816132
-16.541547,-32.481978,12.816132
-16.541547,-30.981978,12.816132
-16.541547,-29.481978,12.816132
-16.541547,-27.981978,12.816132
-16.541547,-26.481978,12.816132
-16.541547,-35.919443,14.181342
-16.541547,-34.419443,14.181342
-16.541547,-32.919443,14.181342
-16.541547,-31.419443,14.181342
-16.541547,-29.919443,14.181342
-16.541547,-28.419443,14.181342
-16.541547,-36.101649,15.546552
-16.541547,-34.601649,15.546552
-16.541547,-33.101649,15.546552
-16.541547,-31.601649,15.546552
-16.541547,-30.101649,15.546552
-16.541547,-28.601649,15.546552
-16.541547,-35.770289,16.911762
-16.541547,-34.270289,16.911762
-16.541547,-32.770289,16.911762
-16.541547,-31.270289,16.911762
-16.541547,-29.770289,16.911762
-16.541547,-34.610459,18.276973
-16.541547,-33.110459,18.276973
-16.541547,-31.610459,18.276973
-16.541547,-32.250653,19.642183
-16.541547,-30.750653,19.642183
-15.957863,-35.020723,0.525042
-15.957863,-33.520723,0.525042
-15.957863,-32.020723,0.525042
-15.957863,-30.520723,0.525042
-15.957863,-29.020723,0.525042
-15.957863,-27.520723,0.525042
-15.957863,-26.020723,0.525042
-15.957863,-35.381189,1.858424
-15.957863,-33.881189,1.858424
-15.957863,-32.381189,1.858424
-15.957863,-30.881189,1.858424
-15.957863,-29.381189,1.858424
-15.957863,-27.881189,1.858424
-15.957863,-26.381189,1.858424
-15.957863,-24.881189,1.858424
-15.957863,-35.265908,3.191806
-15.957863,-33.765908,3.191806
-15.957863,-32.265908,3.191806
-15.957863,-30.765908,3.191806
-15.957863,-29.265908,3.191806
-15.957863,-27.765908,3.191806
-15.957863,-26.265908,3.191806
-15.957863,-24.765908,3.191806
-15.957863,-34.911398,4.525189
-15.957863,-33.411398,4.525189
-15.957863,-31.911398,4.525189
-15.957863,-30.411398,4.525189
-15.957863,-28.911398,4.525189
-15.957863,-27.411398,4.525189
-15.957863,-25.911398,4.525189
-15.957863,-24.411398,4.525189
-15.957863,-34.502675,5.858571
-15.957863,-33.002675,5.858571
-15.957863,-31.502675,5.858571
-15.957863,-30.002675,5.858571
-15.957863,-28.502675,5.858571
-15.957863,-27.002675,5.858571
-15.957863,-25.502675,5.858571
-15.957863,-24.002675,5.858571
-15.957863,-34.173251,7.191953
-15.957863,-32.673251,7.191953
-15.957863,-31.173251,7.191953
-15.957863,-29.673251,7.191953
-15.957863,-28.173251,7.191953
-15.957863,-26.673251,7.191953
-15.957863,-25.173251,7.191953
-15.957863,-23.673251,7.191953
-15.957863,-34.005138,8.525336
-15.957863,-32.505138,8.525336
-15.957863,-31.005138,8.525336
-15.957863,-29.505138,8.525336
-15.957863,-28.005138,8.525336
-15.957863,-26.505138,8.525336
-15.957863,-25.005138,8.525336
-15.957863,-23.505138,8.525336
-15.957863,-34.028842,9.858718
-15.957863,-32.528842,9.858718
-15.957863,-31.028842,9.858718
-15.957863,-29.528842,9.858718
-15.957863,-28.028842,9.858718
-15.957863,-26.528842,9.858718
-15.957863,-25.028842,9.858718
-15.957863,-23.528842,9.858718
-15.957863,-34.223369,11.192100
-15.957863,-32.723369,11.192100
-15.957863,-31.223369,11.192100
-15.957863,-29.723369,11.192100
-15.957863,-28.223369,11.192100
-15.957863,-26.723369,11.192100
-15.957863,-25.223369,11.192100
-15.957863,-34.516222,12.525483
-15.957863,-33.016222,12.525483
-15.957863,-31.516222,12.525483
-15.957863,-30.016222,12.525483
-15.957863,-28.516222,12.525483
-15.957863,-27.016222,12.525483
-15.957863,-25.516222,12.525483
-15.957863,-34.783399,13.858865
-15.957863,-33.283399,13.858865
-15.957863,-31.783399,13.858865
-15.957863,-30.283399,13.858865
-15.957863,-28.783399,13.858865
-15.957863,-27.283399,13.858865
-15.957863,-34.849399,15.192247
-15.957863,-33.349399,15.192247
-15.957863,-31.849399,15.192247
-15.957863,-30.349399,15.192247
-15.957863,-28.849399,15.192247
-15.957863,-34.487216,16.525630
-15.957863,-32.987216,16.525630
-15.957863,-31.487216,16.525630
-15.957863,-29.987216,16.525630
-15.957863,-33.418341,17.859012
-15.957863,-31.918341,17.859012
-15.957863,-30.418341,17.859012
-15.957863,-31.312763,19.192394
-14.855349,-35.635124,0.515507
-14.855349,-34.135124,0.515507
-14.855349,-32.635124,0.515507
-14.855349,-31.135124,0.515507
-14.855349,-29.635124,0.515507
-14.855349,-28.135124,0.515507
-14.855349,-26.635124,0.515507
-14.855349,-35.812655,1.756677
-14.855349,-34.312655,1.756677
-14.855349,-32.812655,1.756677
-14.855349,-31.312655,1.756677
-14.855349,-29.812655,1.756677
-14.855349,-28.312655,1.756677
-14.855349,-26.812655,1.756677
-14.855349,-25.312655,1.756677
-14.855349,-35.536498,2.997847
-14.855349,-34.036498,2.997847
-14.855349,-32.536498,2.997847
-14.855349,-31.036498,2.997847
-14.855349,-29.536498,2.997847
-14.855349,-28.036498,2.997847
-14.855349,-26.536498,2.997847
-14.855349,-25.036498,2.997847
-14.855349,-35.002911,4.239017
-14.855349,-33.502911,4.239017
-14.855349,-32.002911,4.239017
-14.855349,-30.502911,4.239017
-14.855349,-29.002911,4.239017
-14.855349,-27.502911,4.239017
-14.855349,-26.002911,4.239017
-14.855349,-24.502911,4.239017
-14.855349,-34.369483,5.480186
-14.855349,-32.869483,5.480186
-14.855349,-31.369483,5.480186
-14.855349,-29.869483,5.480186
-14.855349,-28.369483,5.480186
-14.855349,-26.869483,5.480186
-14.855349,-25.369483,5.480186
-14.855349,-23.869483,5.480186
-14.855349,-33.755135,6.721356
-14.855349,-32.255135,6.721356
-14.855349,-30.755135,6.721356
-14.855349,-29.255135,6.721356
-14.855349,-27.755135,6.721356
-14.855349,-26.255135,6.721356
-14.855349,-24.755135,6.721356
-14.855349,-23.255135,6.721356
-14.855349,-33.240125,7.962526
-14.855349,-31.740125,7.962526
-14.855349,-30.240125,7.962526
-14.855349,-28.740125,7.962526
-14.855349,-27.240125,7.962526
-14.855349,-25.740125,7.962526
-14.855349,-24.240125,7.962526
-14.855349,-32.866043,9.203696
-14.855349,-31.366043,9.203696
-14.855349,-29.866043,9.203696
-14.855349,-28.366043,9.203696
-14.855349,-26.866043,9.203696
-14.855349,-25.366043,9.203696
-14.855349,-23.866043,9.203696
-14.855349,-32.635810,10.444865
-14.855349,-31.135810,10.444865
-14.855349,-29.635810,10.444865
-14.855349,-28.135810,10.444865
-14.855349,-26.635810,10.444865
-14.855349,-25.135810,10.444865
-14.855349,-32.513684,11.686035
-14.855349,-31.013684,11.686035
-14.855349,-29.513684,11.686035
-14.855349,-28.013684,11.686035
-14.855349,-26.513684,11.686035
-14.855349,-25.013684,11.686035
-14.855349,-32.425256,12.927205
-14.855349,-30.925256,12.927205
-14.855349,-29.425256,12.927205
-14.855349,-27.925256,12.927205
-14.855349,-26.425256,12.927205
-14.855349,-32.257447,14.168375
-14.855349,-30.757447,14.168375
-14.855349,-29.257447,14.168375
-14.855349,-27.757447,14.168375
-14.855349,-31.858516,15.409544
-14.855349,-30.358516,15.409544
-14.855349,-28.858516,15.409544
-14.855349,-31.038052,16.650714
-14.855349,-29.538052,16.650714
-14.855349,-29.566979,17.891884
-12.650321,-36.410023,0.499653
-12.650321,-34.910023,0.499653
-12.650321,-33.410023,0.499653
-12.650321,-31.910023,0.499653
-12.650321,-30.410023,0.499653
-12.650321,-36.246916,1.419079
-12.650321,-34.746916,1.419079
-12.650321,-33.246916,1.419079
-12.650321,-31.746916,1.419079
-12.650321,-30.246916,1.419079
-12.650321,-28.746916,1.419079
-12.650321,-35.770351,2.338506
-12.650321,-34.270351,2.338506
-12.650321,-32.770351,2.338506
-12.650321,-31.270351,2.338506
-12.650321,-29.770351,2.338506
-12.650321,-28.270351,2.338506
-12.650321,-35.067139,3.257932
-12.650321,-33.567139,3.257932
-12.650321,-32.067139,3.257932
-12.650321,-30.567139,3.257932
-12.650321,-29.067139,3.257932
-12.650321,-27.567139,3.257932
-12.650321,-34.212448,4.177359
-12.650321,-32.712448,4.177359
-12.650321,-31.212448,4.177359
-12.650321,-29.712448,4.177359
-12.650321,-28.212448,4.177359
-12.650321,-26.712448,4.177359
-12.650321,-33.269802,5.096785
-12.650321,-31.769802,5.096785
-12.650321,-30.269802,5.096785
-12.650321,-28.769802,5.096785
-12.650321,-27.269802,5.096785
-12.650321,-32.291081,6.016212
-12.650321,-30.791081,6.016212
-12.650321,-29.291081,6.016212
-12.650321,-27.791081,6.016212
-12.650321,-26.291081,6.016212
-12.650321,-31.316524,6.935638
-12.650321,-29.816524,6.935638
-12.650321,-28.316524,6.935638
-12.650321,-26.816524,6.935638
-12.650321,-30.374723,7.855065
-12.650321,-28.874723,7.855065
-12.650321,-27.374723,7.855065
-12.650321,-25.874723,7.855065
-12.650321,-29.482630,8.774491
-12.650321,-27.982630,8.774491
-12.650321,-26.482630,8.774491
-12.650321,-28.645551,9.693918
-12.650321,-27.145551,9.693918
-12.650321,-25.645551,9.693918
-12.650321,-27.857151,10.613344
-12.650321,-26.357151,10.613344
-12.650321,-27.099451,11.532770
-12.650321,-26.486155,12.452197
-12.650321,-26.877731,13.371623
-11.418100,-36.414116,0.501537
-11.418100,-34.914116,0.501537
-11.418100,-33.414116,0.501537
-11.418100,-31.914116,0.501537
-11.418100,-36.152815,1.156960
-11.418100,-34.652815,1.156960
-11.418100,-33.152815,1.156960
-11.418100,-31.652815,1.156960
-11.418100,-35.708034,1.812383
-11.418100,-34.208034,1.812383
-11.418100,-32.708034,1.812383
-11.418100,-31.208034,1.812383
-11.418100,-35.113176,2.467807
-11.418100,-33.613176,2.467807
-11.418100,-32.113176,2.467807
-11.418100,-30.613176,2.467807
-11.418100,-34.398634,3.123230
-11.418100,-32.898634,3.123230
-11.418100,-31.398634,3.123230
-11.418100,-29.898634,3.123230
-11.418100,-33.591798,3.778654
-11.418100,-32.091798,3.778654
-11.418100,-30.591798,3.778654
-11.418100,-32.717049,4.434077
-11.418100,-31.217049,4.434077
-11.418100,-29.717049,4.434077
-11.418100,-31.795760,5.089501
-11.418100,-30.295760,5.089501
-11.418100,-28.795760,5.089501
-11.418100,-30.846301,5.744924
-11.418100,-29.346301,5.744924
-11.418100,-29.884033,6.400347
-11.418100,-28.384033,6.400347
-11.418100,-28.921309,7.055771
-11.418100,-27.967477,7.711194
-11.418100,-27.317711,8.366618
-11.418100,-27.268325,9.022041
-11.418100,-27.272533,9.677465
-11.418100,-25.772533,9.677465
-39.499775,-38.249183,4.584505
-39.499775,-38.390103,5.002029
-39.499775,-38.499819,5.419553
-39.499775,-38.581686,5.837077
-39.499775,-38.638566,6.254601
-39.499775,-37.138566,6.254601
-39.499775,-38.672824,6.672125
-39.499775,-37.172824,6.672125
-39.499775,-38.686330,7.089649
-39.499775,-37.186330,7.089649
-39.499775,-38.680460,7.507173
-39.499775,-37.180460,7.507173
-39.499775,-38.656095,7.924697
-39.499775,-37.156095,7.924697
-39.499775,-38.613620,8.342221
-39.499775,-37.113620,8.342221
-39.499775,-38.552924,8.759745
-39.499775,-37.052924,8.759745
-39.499775,-38.473402,9.177269
-39.499775,-36.973402,9.177269
-39.499775,-38.373954,9.594793
-39.499775,-36.873954,9.594793
-39.499775,-38.252985,10.012317
-39.499775,-38.108404,10.429841
-38.721530,-37.948803,3.962919
-38.721530,-38.137391,4.472138
-38.721530,-38.277509,4.981357
-38.721530,-36.777509,4.981357
-38.721530,-38.376329,5.490576
-38.721530,-36.876329,5.490576
-38.721530,-38.439929,5.999795
-38.721530,-36.939929,5.999795
-38.721530,-38.473291,6.509014
-38.721530,-36.973291,6.509014
-38.721530,-38.480300,7.018234
-38.721530,-36.980300,7.018234
-38.721530,-38.463748,7.527453
-38.721530,-36.963748,7.527453
-38.721530,-38.425330,8.036672
-38.721530,-36.925330,8.036672
-38.721530,-38.365646,8.545891
-38.721530,-36.865646,8.545891
-38.721530,-38.284199,9.055110
-38.721530,-36.784199,9.055110
-38.721530,-38.179398,9.564329
-38.721530,-36.679398,9.564329
-38.721530,-38.048556,10.073548
-38.721530,-36.548556,10.073548
-38.721530,-37.887891,10.582767
-38.721530,-36.387891,10.582767
-38.721530,-37.692524,11.091986
-37.554162,-37.350320,3.163376
-37.554162,-37.599535,3.758094
-37.554162,-36.099535,3.758094
-37.554162,-37.776545,4.352811
-37.554162,-36.276545,4.352811
-37.554162,-37.895180,4.947528
-37.554162,-36.395180,4.947528
-37.554162,-37.967232,5.542245
-37.554162,-36.467232,5.542245
-37.554162,-34.967232,5.542245
-37.554162,-38.002455,6.136963
-37.554162,-36.502455,6.136963
-37.554162,-35.002455,6.136963
-37.554162,-38.008566,6.731680
-37.554162,-36.508566,6.731680
-37.554162,-35.008566,6.731680
-37.554162,-37.991241,7.326397
-37.554162,-36.491241,7.326397
-37.554162,-34.991241,7.326397
-37.554162,-37.954120,7.921114
-37.554162,-36.454120,7.921114
-37.554162,-34.954120,7.921114
-37.554162,-37.898803,8.515832
-37.554162,-36.398803,8.515832
-37.554162,-34.898803,8.515832
-37.554162,-37.824855,9.110549
-37.554162,-36.324855,9.110549
-37.554162,-34.824855,9.110549
-37.554162,-37.729799,9.705266
-37.554162,-36.229799,9.705266
-37.554162,-34.729799,9.705266
-37.554162,-37.609122,10.299983
-37.554162,-36.109122,10.299983
-37.554162,-37.456272,10.894701
-37.554162,-35.956272,10.894701
-37.554162,-37.262659,11.489418
-35.543696,-36.026522,2.111587
-35.543696,-34.526522,2.111587
-35.543696,-36.354649,2.761240
-35.543696,-34.854649,2.761240
-35.543696,-36.581772,3.410892
-35.543696,-35.081772,3.410892
-35.543696,-33.581772,3.410892
-35.543696,-36.730482,4.060545
-35.543696,-35.230482,4.060545
-35.543696,-33.730482,4.060545
-35.543696,-36.820468,4.710197
-35.543696,-35.320468,4.710197
-35.543696,-33.820468,4.710197
-35.543696,-36.868514,5.359850
-35.543696,-35.368514,5.359850
-35.543696,-33.868514,5.359850
-35.543696,-36.888506,6.009502
-35.543696,-35.388506,6.009502
-35.543696,-33.888506,6.009502
-35.543696,-32.388506,6.009502
-35.543696,-36.891425,6.659155
-35.543696,-35.391425,6.659155
-35.543696,-33.891425,6.659155
-35.543696,-32.391425,6.659155
-35.543696,-36.885350,7.308807
-35.543696,-35.385350,7.308807
-35.543696,-33.885350,7.308807
-35.543696,-32.385350,7.308807
-35.543696,-36.875457,7.958460
-35.543696,-35.375457,7.958460
-35.543696,-33.875457,7.958460
-35.543696,-32.375457,7.958460
-35.543696,-36.864022,8.608113
-35.543696,-35.364022,8.608113
-35.543696,-33.864022,8.608113
-35.543696,-36.850418,9.257765
-35.543696,-35.350418,9.257765
-35.543696,-33.850418,9.257765
-35.543696,-36.831114,9.907418
-35.543696,-35.331114,9.907418
-35.543696,-33.831114,9.907418
-35.543696,-36.799678,10.557070
-35.543696,-35.299678,10.557070
-35.543696,-33.799678,10.557070
-35.543696,-36.746777,11.206723
-35.543696,-35.246777,11.206723
-34.181767,-35.018586,1.595624
-34.181767,-33.518586,1.595624
-34.181767,-35.386778,2.251697
-34.181767,-33.886778,2.251697
-34.181767,-35.642677,2.907770
-34.181767,-34.142677,2.907770
-34.181767,-32.642677,2.907770
-34.181767,-35.812042,3.563842
-34.181767,-34.312042,3.563842
-34.181767,-32.812042,3.563842
-34.181767,-35.917613,4.219915
-34.181767,-34.417613,4.219915
-34.181767,-32.917613,4.219915
-34.181767,-35.979111,4.875987
-34.181767,-34.479111,4.875987
-34.181767,-32.979111,4.875987
-34.181767,-31.479111,4.875987
-34.181767,-36.013238,5.532060
-34.181767,-34.513238,5.532060
-34.181767,-33.013238,5.532060
-34.181767,-31.513238,5.532060
-34.181767,-36.033679,6.188132
-34.181767,-34.533679,6.188132
-34.181767,-33.033679,6.188132
-34.181767,-31.533679,6.188132
-34.181767,-36.051097,6.844205
-34.181767,-34.551097,6.844205
-34.181767,-33.051097,6.844205
-34.181767,-31.551097,6.844205
-34.181767,-36.073139,7.500278
-34.181767,-34.573139,7.500278
-34.181767,-33.073139,7.500278
-34.181767,-31.573139,7.500278
-34.181767,-36.104434,8.156350
-34.181767,-34.604434,8.156350
-34.181767,-33.104434,8.156350
-34.181767,-31.604434,8.156350
-34.181767,-36.146589,8.812423
-34.181767,-34.646589,8.812423
-34.181767,-33.146589,8.812423
-34.181767,-31.646589,8.812423
-34.181767,-36.198195,9.468495
-34.181767,-34.698195,9.468495
-34.181767,-33.198195,9.468495
-34.181767,-36.254823,10.124568
-34.181767,-34.754823,10.124568
-34.181767,-33.254823,10.124568
-34.181767,-36.309027,10.780641
-34.181767,-34.809027,10.780641
-34.181767,-33.309027,10.780641
-32.430716,-33.721262,1.119949
-32.430716,-32.221262,1.119949
-32.430716,-34.134317,1.782277
-32.430716,-32.634317,1.782277
-32.430716,-31.134317,1.782277
-32.430716,-34.424323,2.444606
-32.430716,-32.924323,2.444606
-32.430716,-31.424323,2.444606
-32.430716,-34.620204,3.106934
-32.430716,-33.120204,3.106934
-32.430716,-31.620204,3.106934
-32.430716,-34.747748,3.769263
-32.430716,-33.247748,3.769263
-32.430716,-31.747748,3.769263
-32.430716,-30.247748,3.769263
-32.430716,-34.829609,4.431591
-32.430716,-33.329609,4.431591
-32.430716,-31.829609,4.431591
-32.430716,-30.329609,4.431591
-32.430716,-34.885303,5.093920
-32.430716,-33.385303,5.093920
-32.430716,-31.885303,5.093920
-32.430716,-30.385303,5.093920
-32.430716,-34.931213,5.756248
-32.430716,-33.431213,5.756248
-32.430716,-31.931213,5.756248
-32.430716,-30.431213,5.756248
-32.430716,-34.980585,6.418577
-32.430716,-33.480585,6.418577
-32.430716,-31.980585,6.418577
-32.430716,-30.480585,6.418577
-32.430716,-35.043529,7.080905
-32.430716,-33.543529,7.080905
-32.430716,-32.043529,7.080905
-32.430716,-30.543529,7.080905
-32.430716,-35.127021,7.743234
-32.430716,-33.627021,7.743234
-32.430716,-32.127021,7.743234
-32.430716,-30.627021,7.743234
-32.430716,-35.234901,8.405562
-32.430716,-33.734901,8.405562
-32.430716,-32.234901,8.405562
-32.430716,-30.734901,8.405562
-32.430716,-35.367873,9.067891
-32.430716,-33.867873,9.067891
-32.430716,-32.367873,9.067891
-32.430716,-30.867873,9.067891
-32.430716,-35.523507,9.730220
-32.430716,-34.023507,9.730220
-32.430716,-32.523507,9.730220
-32.430716,-35.696235,10.392548
-32.430716,-34.196235,10.392548
-32.430716,-32.696235,10.392548
-30.095981,-32.208423,0.738999
-30.095981,-30.708423,0.738999
-30.095981,-29.208423,0.738999
-30.095981,-32.689789,1.444944
-30.095981,-31.189789,1.444944
-30.095981,-29.689789,1.444944
-30.095981,-33.027341,2.150889
-30.095981,-31.527341,2.150889
-30.095981,-30.027341,2.150889
-30.095981,-33.258256,2.856834
-30.095981,-31.758256,2.856834
-30.095981,-30.258256,2.856834
-30.095981,-28.758256,2.856834
-30.095981,-33.415665,3.562779
-30.095981,-31.915665,3.562779
-30.095981,-30.415665,3.562779
-30.095981,-28.915665,3.562779
-30.095981,-33.528649,4.268724
-30.095981,-32.028649,4.268724
-30.095981,-30.528649,4.268724
-30.095981,-29.028649,4.268724
-30.095981,-33.622247,4.974669
-30.095981,-32.122247,4.974669
-30.095981,-30.622247,4.974669
-30.095981,-29.122247,4.974669
-30.095981,-33.717449,5.680615
-30.095981,-32.217449,5.680615
-30.095981,-30.717449,5.680615
-30.095981,-29.217449,5.680615
-30.095981,-33.831197,6.386560
-30.095981,-32.331197,6.386560
-30.095981,-30.831197,6.386560
-30.095981,-29.331197,6.386560
-30.095981,-33.976389,7.092505
-30.095981,-32.476389,7.092505
-30.095981,-30.976389,7.092505
-30.095981,-29.476389,7.092505
-30.095981,-34.161875,7.798450
-30.095981,-32.661875,7.798450
-30.095981,-31.161875,7.798450
-30.095981,-29.661875,7.798450
-30.095981,-34.392458,8.504395
-30.095981,-32.892458,8.504395
-30.095981,-31.392458,8.504395
-30.095981,-29.892458,8.504395
-30.095981,-34.668896,9.210340
-30.095981,-33.168896,9.210340
-30.095981,-31.668896,9.210340
-30.095981,-30.168896,9.210340
-30.095981,-34.987898,9.916285
-30.095981,-33.487898,9.916285
-30.095981,-31.987898,9.916285
-30.095981,-30.487898,9.916285
-30.095981,-35.342129,10.622230
-30.095981,-33.842129,10.622230
-30.095981,-32.342129,10.622230
-30.095981,-30.842129,10.622230
-27.696392,-31.161081,0.556759
-27.696392,-29.661081,0.556759
-27.696392,-28.161081,0.556759
-27.696392,-31.740226,1.372191
-27.696392,-30.240226,1.372191
-27.696392,-28.740226,1.372191
-27.696392,-27.240226,1.372191
-27.696392,-32.134876,2.187623
-27.696392,-30.634876,2.187623
-27.696392,-29.134876,2.187623
-27.696392,-27.634876,2.187623
-27.696392,-32.403035,3.003054
-27.696392,-30.903035,3.003054
-27.696392,-29.403035,3.003054
-27.696392,-27.903035,3.003054
-27.696392,-32.595499,3.818486
-27.696392,-31.095499,3.818486
-27.696392,-29.595499,3.818486
-27.696392,-28.095499,3.818486
-27.696392,-26.595499,3.818486
-27.696392,-32.755864,4.633918
-27.696392,-31.255864,4.633918
-27.696392,-29.755864,4.633918
-27.696392,-28.255864,4.633918
-27.696392,-26.755864,4.633918
-27.696392,-32.920520,5.449350
-27.696392,-31.420520,5.449350
-27.696392,-29.920520,5.449350
-27.696392,-28.420520,5.449350
-27.696392,-26.920520,5.449350
-27.696392,-33.118653,6.264781
-27.696392,-31.618653,6.264781
-27.696392,-30.118653,6.264781
-27.696392,-28.618653,6.264781
-27.696392,-27.118653,6.264781
-27.696392,-33.372248,7.080213
-27.696392,-31.872248,7.080213
-27.696392,-30.372248,7.080213
-27.696392,-28.872248,7.080213
-27.696392,-27.372248,7.080213
-27.696392,-33.696082,7.895645
-27.696392,-32.196082,7.895645
-27.696392,-30.696082,7.895645
-27.696392,-29.196082,7.895645
-27.696392,-27.696082,7.895645
-27.696392,-34.097731,8.711076
-27.696392,-32.597731,8.711076
-27.696392,-31.097731,8.711076
-27.696392,-29.597731,8.711076
-27.696392,-28.097731,8.711076
-27.696392,-34.577567,9.526508
-27.696392,-33.077567,9.526508
-27.696392,-31.577567,9.526508
-27.696392,-30.077567,9.526508
-27.696392,-28.577567,9.526508
-27.696392,-35.128757,10.341940
-27.696392,-33.628757,10.341940
-27.696392,-32.128757,10.341940
-27.696392,-30.628757,10.341940
-27.696392,-29.128757,10.341940
-27.696392,-35.737267,11.157372
-27.696392,-34.237267,11.157372
-27.696392,-32.737267,11.157372
-27.696392,-31.237267,11.157372
-27.696392,-36.381855,11.972803
-27.696392,-34.881855,11.972803
-27.696392,-33.381855,11.972803
-27.696392,-31.881855,11.972803
-26.010195,-30.832501,0.509094
-26.010195,-29.332501,0.509094
-26.010195,-27.832501,0.509094
-26.010195,-26.332501,0.509094
-26.010195,-31.494029,1.437534
-26.010195,-29.994029,1.437534
-26.010195,-28.494029,1.437534
-26.010195,-26.994029,1.437534
-26.010195,-31.929367,2.365975
-26.010195,-30.429367,2.365975
-26.010195,-28.929367,2.365975
-26.010195,-27.429367,2.365975
-26.010195,-25.929367,2.365975
-26.010195,-32.223107,3.294416
-26.010195,-30.723107,3.294416
-26.010195,-29.223107,3.294416
-26.010195,-27.723107,3.294416
-26.010195,-26.223107,3.294416
-26.010195,-32.447735,4.222857
-26.010195,-30.947735,4.222857
-26.010195,-29.447735,4.222857
-26.010195,-27.947735,4.222857
-26.010195,-26.447735,4.222857
-26.010195,-32.663630,5.151298
-26.010195,-31.163630,5.151298
-26.010195,-29.663630,5.151298
-26.010195,-28.163630,5.151298
-26.010195,-26.663630,5.151298
-26.010195,-32.919063,6.079738
-26.010195,-31.419063,6.079738
-26.010195,-29.919063,6.079738
-26.010195,-28.419063,6.079738
-26.010195,-26.919063,6.079738
-26.010195,-25.419063,6.079738
-26.010195,-33.250200,7.008179
-26.010195,-31.750200,7.008179
-26.010195,-30.250200,7.008179
-26.010195,-28.750200,7.008179
-26.010195,-27.250200,7.008179
-26.010195,-25.750200,7.008179
-26.010195,-33.681100,7.936620
-26.010195,-32.181100,7.936620
-26.010195,-30.681100,7.936620
-26.010195,-29.181100,7.936620
-26.010195,-27.681100,7.936620
-26.010195,-26.181100,7.936620
-26.010195,-34.223714,8.865061
-26.010195,-32.723714,8.865061
-26.010195,-31.223714,8.865061
-26.010195,-29.723714,8.865061
-26.010195,-28.223714,8.865061
-26.010195,-26.723714,8.865061
-26.010195,-34.877887,9.793502
-26.010195,-33.377887,9.793502
-26.010195,-31.877887,9.793502
-26.010195,-30.377887,9.793502
-26.010195,-28.877887,9.793502
-26.010195,-27.377887,9.793502
-26.010195,-35.631357,10.721942
-26.010195,-34.131357,10.721942
-26.010195,-32.631357,10.721942
-26.010195,-31.131357,10.721942
-26.010195,-29.631357,10.721942
-26.010195,-36.459757,11.650383
-26.010195,-34.959757,11.650383
-26.010195,-33.459757,11.650383
-26.010195,-31.959757,11.650383
-26.010195,-30.459757,11.650383
-26.010195,-37.326610,12.578824
-26.010195,-35.826610,12.578824
-26.010195,-34.326610,12.578824
-26.010195,-32.826610,12.578824
-26.010195,-31.326610,12.578824
-26.010195,-38.183335,13.507265
-26.010195,-36.683335,13.507265
-26.010195,-35.183335,13.507265
-26.010195,-33.683335,13.507265
-23.999728,-30.920611,0.500754
-23.999728,-29.420611,0.500754
-23.999728,-27.920611,0.500754
-23.999728,-26.420611,0.500754
-23.999728,-24.920611,0.500754
-23.999728,-31.675652,1.585863
-23.999728,-30.175652,1.585863
-23.999728,-28.675652,1.585863
-23.999728,-27.175652,1.585863
-23.999728,-25.675652,1.585863
-23.999728,-32.144726,2.670973
-23.999728,-30.644726,2.670973
-23.999728,-29.144726,2.670973
-23.999728,-27.644726,2.670973
-23.999728,-26.144726,2.670973
-23.999728,-24.644726,2.670973
-23.999728,-32.459241,3.756082
-23.999728,-30.959241,3.756082
-23.999728,-29.459241,3.756082
-23.999728,-27.959241,3.756082
-23.999728,-26.459241,3.756082
-23.999728,-24.959241,3.756082
-23.999728,-32.728021,4.841192
-23.999728,-31.228021,4.841192
-23.999728,-29.728021,4.841192
-23.999728,-28.228021,4.841192
-23.999728,-26.728021,4.841192
-23.999728,-25.228021,4.841192
-23.999728,-33.037294,5.926301
-23.999728,-31.537294,5.926301
-23.999728,-30.037294,5.926301
-23.999728,-28.537294,5.926301
-23.999728,-27.037294,5.926301
-23.999728,-25.537294,5.926301
-23.999728,-33.450704,7.011411
-23.999728,-31.950704,7.011411
-23.999728,-30.450704,7.011411
-23.999728,-28.950704,7.011411
-23.999728,-27.450704,7.011411
-23.999728,-25.950704,7.011411
-23.999728,-24.450704,7.011411
-23.999728,-34.009303,8.096520
-23.999728,-32.509303,8.096520
-23.999728,-31.009303,8.096520
-23.999728,-29.509303,8.096520
-23.999728,-28.009303,8.096520
-23.999728,-26.509303,8.096520
-23.999728,-25.009303,8.096520
-23.999728,-34.731554,9.181630
-23.999728,-33.231554,9.181630
-23.999728,-31.731554,9.181630
-23.999728,-30.231554,9.181630
-23.999728,-28.731554,9.181630
-23.999728,-27.231554,9.181630
-23.999728,-25.731554,9.181630
-23.999728,-35.613330,10.266739
-23.999728,-34.113330,10.266739
-23.999728,-32.613330,10.266739
-23.999728,-31.113330,10.266739
-23.999728,-29.613330,10.266739
-23.999728,-28.113330,10.266739
-23.999728,-36.627916,11.351849
-23.999728,-35.127916,11.351849
-23.999728,-33.627916,11.351849
-23.999728,-32.127916,11.351849
-23.999728,-30.627916,11.351849
-23.999728,-29.127916,11.351849
-23.999728,-37.726006,12.436958
-23.999728,-36.226006,12.436958
-23.999728,-34.726006,12.436958
-23.999728,-33.226006,12.436958
-23.999728,-31.726006,12.436958
-23.999728,-30.226006,12.436958
-23.999728,-38.835706,13.522068
-23.999728,-37.335706,13.522068
-23.999728,-35.835706,13.522068
-23.999728,-34.335706,13.522068
-23.999728,-32.835706,13.522068
-23.999728,-31.335706,13.522068
-23.999728,-39.862532,14.607177
-23.999728,-38.362532,14.607177
-23.999728,-36.862532,14.607177
-23.999728,-35.362532,14.607177
-23.999728,-33.862532,14.607177
-23.999728,-40.689411,15.692286
-23.999728,-39.189411,15.692286
-23.999728,-37.689411,15.692286
-23.999728,-36.189411,15.692286
-22.897214,-31.184634,0.507600
-22.897214,-29.684634,0.507600
-22.897214,-28.184634,0.507600
-22.897214,-26.684634,0.507600
-22.897214,-25.184634,0.507600
-22.897214,-31.977017,1.679438
-22.897214,-30.477017,1.679438
-22.897214,-28.977017,1.679438
-22.897214,-27.477017,1.679438
-22.897214,-25.977017,1.679438
-22.897214,-24.477017,1.679438
-22.897214,-32.448392,2.851277
-22.897214,-30.948392,2.851277
-22.897214,-29.448392,2.851277
-22.897214,-27.948392,2.851277
-22.897214,-26.448392,2.851277
-22.897214,-24.948392,2.851277
-22.897214,-32.761418,4.023116
-22.897214,-31.261418,4.023116
-22.897214,-29.761418,4.023116
-22.897214,-28.261418,4.023116
-22.897214,-26.761418,4.023116
-22.897214,-25.261418,4.023116
-22.897214,-23.761418,4.023116
-22.897214,-33.048034,5.194954
-22.897214,-31.548034,5.194954
-22.897214,-30.048034,5.194954
-22.897214,-28.548034,5.194954
-22.897214,-27.048034,5.194954
-22.897214,-25.548034,5.194954
-22.897214,-24.048034,5.194954
-22.897214,-33.409450,6.366793
-22.897214,-31.909450,6.366793
-22.897214,-30.409450,6.366793
-22.897214,-28.909450,6.366793
-22.897214,-27.409450,6.366793
-22.897214,-25.909450,6.366793
-22.897214,-24.409450,6.366793
-22.897214,-33.916157,7.538632
-22.897214,-32.416157,7.538632
-22.897214,-30.916157,7.538632
-22.897214,-29.416157,7.538632
-22.897214,-27.916157,7.538632
-22.897214,-26.416157,7.538632
-22.897214,-24.916157,7.538632
-22.897214,-34.607916,8.710470
-22.897214,-33.107916,8.710470
-22.897214,-31.607916,8.710470
-22.897214,-30.107916,8.710470
-22.897214,-28.607916,8.710470
-22.897214,-27.107916,8.710470
-22.897214,-25.607916,8.710470
-22.897214,-35.493768,9.882309
-22.897214,-33.993768,9.882309
-22.897214,-32.493768,9.882309
-22.897214,-30.993768,9.882309
-22.897214,-29.493768,9.882309
-22.897214,-27.993768,9.882309
-22.897214,-26.493768,9.882309
-22.897214,-36.552028,11.054147
-22.897214,-35.052028,11.054147
-22.897214,-33.552028,11.054147
-22.897214,-32.052028,11.054147
-22.897214,-30.552028,11.054147
-22.897214,-29.052028,11.054147
-22.897214,-27.552028,11.054147
-22.897214,-37.730288,12.225986
-22.897214,-36.230288,12.225986
-22.897214,-34.730288,12.225986
-22.897214,-33.230288,12.225986
-22.897214,-31.730288,12.225986
-22.897214,-30.230288,12.225986
-22.897214,-28.730288,12.225986
-22.897214,-38.945412,13.397825
-22.897214,-37.445412,13.397825
-22.897214,-35.945412,13.397825
-22.897214,-34.445412,13.397825
-22.897214,-32.945412,13.397825
-22.897214,-31.445412,13.397825
-22.897214,-40.083545,14.569663
-22.897214,-38.583545,14.569663
-22.897214,-37.083545,14.569663
-22.897214,-35.583545,14.569663
-22.897214,-34.083545,14.569663
-22.897214,-32.583545,14.569663
-22.897214,-41.000104,15.741502
-22.897214,-39.500104,15.741502
-22.897214,-38.000104,15.741502
-22.897214,-36.500104,15.741502
-22.897214,-35.000104,15.741502
-22.897214,-41.519782,16.913341
-22.897214,-40.019782,16.913341
-22.897214,-38.519782,16.913341
-22.897214,-37.019782,16.913341
-22.378385,-31.357789,0.511986
-22.378385,-29.857789,0.511986
-22.378385,-28.357789,0.511986
-22.378385,-26.857789,0.511986
-22.378385,-25.357789,0.511986
-22.378385,-32.161655,1.722807
-22.378385,-30.661655,1.722807
-22.378385,-29.161655,1.722807
-22.378385,-27.661655,1.722807
-22.378385,-26.161655,1.722807
-22.378385,-24.661655,1.722807
-22.378385,-32.627904,2.933628
-22.378385,-31.127904,2.933628
-22.378385,-29.627904,2.933628
-22.378385,-28.127904,2.933628
-22.378385,-26.627904,2.933628
-22.378385,-25.127904,2.933628
-22.378385,-23.627904,2.933628
-22.378385,-32.934544,4.144449
-22.378385,-31.434544,4.144449
-22.378385,-29.934544,4.144449
-22.378385,-28.434544,4.144449
-22.378385,-26.934544,4.144449
-22.378385,-25.434544,4.144449
-22.378385,-23.934544,4.144449
-22.378385,-33.224565,5.355270
-22.378385,-31.724565,5.355270
-22.378385,-30.224565,5.355270
-22.378385,-28.724565,5.355270
-22.378385,-27.224565,5.355270
-22.378385,-25.724565,5.355270
-22.378385,-24.224565,5.355270
-22.378385,-33.605934,6.566092
-22.378385,-32.105934,6.566092
-22.378385,-30.605934,6.566092
-22.378385,-29.105934,6.566092
-22.378385,-27.605934,6.566092
-22.378385,-26.105934,6.566092
-22.378385,-24.605934,6.566092
-22.378385,-34.151597,7.776913
-22.378385,-32.651597,7.776913
-22.378385,-31.151597,7.776913
-22.378385,-29.651597,7.776913
-22.378385,-28.151597,7.776913
-22.378385,-26.651597,7.776913
-22.378385,-25.151597,7.776913
-22.378385,-34.899478,8.987734
-22.378385,-33.399478,8.987734
-22.378385,-31.899478,8.987734
-22.378385,-30.399478,8.987734
-22.378385,-28.899478,8.987734
-22.378385,-27.399478,8.987734
-22.378385,-25.899478,8.987734
-22.378385,-35.852482,10.198555
-22.378385,-34.352482,10.198555
-22.378385,-32.852482,10.198555
-22.378385,-31.352482,10.198555
-22.378385,-29.852482,10.198555
-22.378385,-28.352482,10.198555
-22.378385,-26.852482,10.198555
-22.378385,-36.978492,11.409376
-22.378385,-35.478492,11.409376
-22.378385,-33.978492,11.409376
-22.378385,-32.478492,11.409376
-22.378385,-30.978492,11.409376
-22.378385,-29.478492,11.409376
-22.378385,-27.978492,11.409376
-22.378385,-38.210368,12.620198
-22.378385,-36.710368,12.620198
-22.378385,-35.210368,12.620198
-22.378385,-33.710368,12.620198
-22.378385,-32.210368,12.620198
-22.378385,-30.710368,12.620198
-22.378385,-29.210368,12.620198
-22.378385,-39.445950,13.831019
-22.378385,-37.945950,13.831019
-22.378385,-36.445950,13.831019
-22.378385,-34.945950,13.831019
-22.378385,-33.445950,13.831019
-22.378385,-31.945950,13.831019
-22.378385,-40.548059,15.041840
-22.378385,-39.048059,15.041840
-22.378385,-37.548059,15.041840
-22.378385,-36.048059,15.041840
-22.378385,-34.548059,15.041840
-22.378385,-33.048059,15.041840
-22.378385,-41.344491,16.252661
-22.378385,-39.844491,16.252661
-22.378385,-38.344491,16.252661
-22.378385,-36.844491,16.252661
-22.378385,-35.344491,16.252661
-22.378385,-41.628023,17.463483
-22.378385,-40.128023,17.463483
-22.378385,-38.628023,17.463483
-22.378385,-37.128023,17.463483
-21.211017,-31.850166,0.522290
-21.211017,-30.350166,0.522290
-21.211017,-28.850166,0.522290
-21.211017,-27.350166,0.522290
-21.211017,-25.850166,0.522290
-21.211017,-24.350166,0.522290
-21.211017,-32.660457,1.812568
-21.211017,-31.160457,1.812568
-21.211017,-29.660457,1.812568
-21.211017,-28.160457,1.812568
-21.211017,-26.660457,1.812568
-21.211017,-25.160457,1.812568
-21.211017,-23.660457,1.812568
-21.211017,-33.096181,3.102847
-21.211017,-31.596181,3.102847
-21.211017,-30.096181,3.102847
-21.211017,-28.596181,3.102847
-21.211017,-27.096181,3.102847
-21.211017,-25.596181,3.102847
-21.211017,-24.096181,3.102847
-21.211017,-33.369264,4.393125
-21.211017,-31.869264,4.393125
-21.211017,-30.369264,4.393125
-21.211017,-28.869264,4.393125
-21.211017,-27.369264,4.393125
-21.211017,-25.869264,4.393125
-21.211017,-24.369264,4.393125
-21.211017,-22.869264,4.393125
-21.211017,-33.646475,5.683404
-21.211017,-32.146475,5.683404
-21.211017,-30.646475,5.683404
-21.211017,-29.146475,5.683404
-21.211017,-27.646475,5.683404
-21.211017,-26.146475,5.683404
-21.211017,-24.646475,5.683404
-21.211017,-23.146475,5.683404
-21.211017,-34.049422,6.973683
-21.211017,-32.549422,6.973683
-21.211017,-31.049422,6.973683
-21.211017,-29.549422,6.973683
-21.211017,-28.049422,6.973683
-21.211017,-26.549422,6.973683
-21.211017,-25.049422,6.973683
-21.211017,-23.549422,6.973683
-21.211017,-34.654554,8.263961
-21.211017,-33.154554,8.263961
-21.211017,-31.654554,8.263961
-21.211017,-30.154554,8.263961
-21.211017,-28.654554,8.263961
-21.211017,-27.154554,8.263961
-21.211017,-25.654554,8.263961
-21.211017,-24.154554,8.263961
-21.211017,-35.493163,9.554240
-21.211017,-33.993163,9.554240
-21.211017,-32.493163,9.554240
-21.211017,-30.993163,9.554240
-21.211017,-29.493163,9.554240
-21.211017,-27.993163,9.554240
-21.211017,-26.493163,9.554240
-21.211017,-24.993163,9.554240
-21.211017,-36.551380,10.844518
-21.211017,-35.051380,10.844518
-21.211017,-33.551380,10.844518
-21.211017,-32.051380,10.844518
-21.211017,-30.551380,10.844518
-21.211017,-29.051380,10.844518
-21.211017,-27.551380,10.844518
-21.211017,-26.051380,10.844518
-21.211017,-37.770178,12.134797
-21.211017,-36.270178,12.134797
-21.211017,-34.770178,12.134797
