-19.591372,-38.628305,12.751936
-19.591372,-37.128305,12.751936
-19.591372,-35.628305,12.751936
-19.591372,-34.128305,12.751936
-19.591372,-32.628305,12.751936
-19.591372,-31.128305,12.751936
-19.591372,-29.628305,12.751936
-19.591372,-28.128305,12.751936
-19.591372,-39.810781,14.109773
-19.591372,-38.310781,14.109773
-19.591372,-36.810781,14.109773
-19.591372,-35.310781,14.109773
-19.591372,-33.810781,14.109773
-19.591372,-32.310781,14.109773
-19.591372,-30.810781,14.109773
-19.591372,-40.780498,15.467609
-19.591372,-39.280498,15.467609
-19.591372,-37.780498,15.467609
-19.591372,-36.280498,15.467609
-19.591372,-34.780498,15.467609
-19.591372,-33.280498,15.467609
-19.591372,-31.780498,15.467609
-19.591372,-41.282824,16.825445
-19.591372,-39.782824,16.825445
-19.591372,-38.282824,16.825445
-19.591372,-36.782824,16.825445
-19.591372,-35.282824,16.825445
-19.591372,-33.782824,16.825445
-19.591372,-41.007743,18.183281
-19.591372,-39.507743,18.183281
-19.591372,-38.007743,18.183281
-19.591372,-36.507743,18.183281
-19.591372,-39.589855,19.541118
-19.591372,-38.089855,19.541118
-19.591372,-36.589855,19.541118
-19.016211,-33.269264,0.533458
-19.016211,-31.769264,0.533458
-19.016211,-30.269264,0.533458
-19.016211,-28.769264,0.533458
-19.016211,-27.269264,0.533458
-19.016211,-25.769264,0.533458
-19.016211,-24.269264,0.533458
-19.016211,-34.024590,1.907772
-19.016211,-32.524590,1.907772
-19.016211,-31.024590,1.907772
-19.016211,-29.524590,1.907772
-19.016211,-28.024590,1.907772
-19.016211,-26.524590,1.907772
-19.016211,-25.024590,1.907772
-19.016211,-23.524590,1.907772
-19.016211,-34.354089,3.282086
-19.016211,-32.854089,3.282086
-19.016211,-31.354089,3.282086
-19.016211,-29.854089,3.282086
-19.016211,-28.354089,3.282086
-19.016211,-26.854089,3.282086
-19.016211,-25.354089,3.282086
-19.016211,-23.854089,3.282086
-19.016211,-34.509941,4.656400
-19.016211,-33.009941,4.656400
-19.016211,-31.509941,4.656400
-19.016211,-30.009941,4.656400
-19.016211,-28.509941,4.656400
-19.016211,-27.009941,4.656400
-19.016211,-25.509941,4.656400
-19.016211,-24.009941,4.656400
-19.016211,-34.686201,6.030714
-19.016211,-33.186201,6.030714
-19.016211,-31.686201,6.030714
-19.016211,-30.186201,6.030714
-19.016211,-28.686201,6.030714
-19.016211,-27.186201,6.030714
-19.016211,-25.686201,6.030714
-19.016211,-24.186201,6.030714
-19.016211,-35.018801,7.405028
-19.016211,-33.518801,7.405028
-19.016211,-32.018801,7.405028
-19.016211,-30.518801,7.405028
-19.016211,-29.018801,7.405028
-19.016211,-27.518801,7.405028
-19.016211,-26.018801,7.405028
-19.016211,-24.518801,7.405028
-19.016211,-23.018801,7.405028
-19.016211,-35.585549,8.779342
-19.016211,-34.085549,8.779342
-19.016211,-32.585549,8.779342
-19.016211,-31.085549,8.779342
-19.016211,-29.585549,8.779342
-19.016211,-28.085549,8.779342
-19.016211,-26.585549,8.779342
-19.016211,-25.085549,8.779342
-19.016211,-36.406129,10.153656
-19.016211,-34.906129,10.153656
-19.016211,-33.406129,10.153656
-19.016211,-31.906129,10.153656
-19.016211,-30.406129,10.153656
-19.016211,-28.906129,10.153656
-19.016211,-27.406129,10.153656
-19.016211,-25.906129,10.153656
-19.016211,-37.442102,11.527970
-19.016211,-35.942102,11.527970
-19.016211,-34.442102,11.527970
-19.016211,-32.942102,11.527970
-19.016211,-31.442102,11.527970
-19.016211,-29.942102,11.527970
-19.016211,-28.442102,11.527970
-19.016211,-26.942102,11.527970
-19.016211,-38.596903,12.902284
-19.016211,-37.096903,12.902284
-19.016211,-35.596903,12.902284
-19.016211,-34.096903,12.902284
-19.016211,-32.596903,12.902284
-19.016211,-31.096903,12.902284
-19.016211,-29.596903,12.902284
-19.016211,-28.096903,12.902284
-19.016211,-39.715844,14.276598
-19.016211,-38.215844,14.276598
-19.016211,-36.715844,14.276598
-19.016211,-35.215844,14.276598
-19.016211,-33.715844,14.276598
-19.016211,-32.215844,14.276598
-19.016211,-30.715844,14.276598
-19.016211,-40.586115,15.650912
-19.016211,-39.086115,15.650912
-19.016211,-37.586115,15.650912
-19.016211,-36.086115,15.650912
-19.016211,-34.586115,15.650912
-19.016211,-33.086115,15.650912
-19.016211,-31.586115,15.650912
-19.016211,-40.936780,17.025226
-19.016211,-39.436780,17.025226
-19.016211,-37.936780,17.025226
-19.016211,-36.436780,17.025226
-19.016211,-34.936780,17.025226
-19.016211,-33.436780,17.025226
-19.016211,-40.438780,18.399540
-19.016211,-38.938780,18.399540
-19.016211,-37.438780,18.399540
-19.016211,-35.938780,18.399540
-19.016211,-38.704931,19.773854
-19.016211,-37.204931,19.773854
-19.016211,-33.269264,0.533458
-19.016211,-31.769264,0.533458
-19.016211,-30.269264,0.533458
-19.016211,-28.769264,0.533458
-19.016211,-27.269264,0.533458
-19.016211,-25.769264,0.533458
-19.016211,-24.269264,0.533458
-19.016211,-34.024590,1.907772
-19.016211,-32.524590,1.907772
-19.016211,-31.024590,1.907772
-19.016211,-29.524590,1.907772
-19.016211,-28.024590,1.907772
-19.016211,-26.524590,1.907772
-19.016211,-25.024590,1.907772
-19.016211,-23.524590,1.907772
-19.016211,-34.354089,3.282086
-19.016211,-32.854089,3.282086
-19.016211,-31.354089,3.282086
-19.016211,-29.854089,3.282086
-19.016211,-28.354089,3.282086
-19.016211,-26.854089,3.282086
-19.016211,-25.354089,3.282086
-19.016211,-23.854089,3.282086
-19.016211,-34.509941,4.656400
-19.016211,-33.009941,4.656400
-19.016211,-31.509941,4.656400
-19.016211,-30.009941,4.656400
-19.016211,-28.509941,4.656400
-19.016211,-27.009941,4.656400
-19.016211,-25.509941,4.656400
-19.016211,-24.009941,4.656400
-19.016211,-34.686201,6.030714
-19.016211,-33.186201,6.030714
-19.016211,-31.686201,6.030714
-19.016211,-30.186201,6.030714
-19.016211,-28.686201,6.030714
-19.016211,-27.186201,6.030714
-19.016211,-25.686201,6.030714
-19.016211,-24.186201,6.030714
-19.016211,-35.018801,7.405028
-19.016211,-33.518801,7.405028
-19.016211,-32.018801,7.405028
-19.016211,-30.518801,7.405028
-19.016211,-29.018801,7.405028
-19.016211,-27.518801,7.405028
-19.016211,-26.018801,7.405028
-19.016211,-24.518801,7.405028
-19.016211,-23.018801,7.405028
-19.016211,-35.585549,8.779342
-19.016211,-34.085549,8.779342
-19.016211,-32.585549,8.779342
-19.016211,-31.085549,8.779342
-19.016211,-29.585549,8.779342
-19.016211,-28.085549,8.779342
-19.016211,-26.585549,8.779342
-19.016211,-25.085549,8.779342
-19.016211,-36.406129,10.153656
-19.016211,-34.906129,10.153656
-19.016211,-33.406129,10.153656
-19.016211,-31.906129,10.153656
-19.016211,-30.406129,10.153656
-19.016211,-28.906129,10.153656
-19.016211,-27.406129,10.153656
-19.016211,-25.906129,10.153656
-19.016211,-37.442102,11.527970
-19.016211,-35.942102,11.527970
-19.016211,-34.442102,11.527970
-19.016211,-32.942102,11.527970
-19.016211,-31.442102,11.527970
-19.016211,-29.942102,11.527970
-19.016211,-28.442102,11.527970
-19.016211,-26.942102,11.527970
-19.016211,-38.596903,12.902284
-19.016211,-37.096903,12.902284
-19.016211,-35.596903,12.902284
-19.016211,-34.096903,12.902284
-19.016211,-32.596903,12.902284
-19.016211,-31.096903,12.902284
-19.016211,-29.596903,12.902284
-19.016211,-28.096903,12.902284
-19.016211,-39.715844,14.276598
-19.016211,-38.215844,14.276598
-19.016211,-36.715844,14.276598
-19.016211,-35.215844,14.276598
-19.016211,-33.715844,14.276598
-19.016211,-32.215844,14.276598
-19.016211,-30.715844,14.276598
-19.016211,-40.586115,15.650912
-19.016211,-39.086115,15.650912
-19.016211,-37.586115,15.650912
-19.016211,-36.086115,15.650912
-19.016211,-34.586115,15.650912
-19.016211,-33.086115,15.650912
-19.016211,-31.586115,15.650912
-19.016211,-40.936780,17.025226
-19.016211,-39.436780,17.025226
-19.016211,-37.936780,17.025226
-19.016211,-36.436780,17.025226
-19.016211,-34.936780,17.025226
-19.016211,-33.436780,17.025226
-19.016211,-40.438780,18.399540
-19.016211,-38.938780,18.399540
-19.016211,-37.438780,18.399540
-19.016211,-35.938780,18.399540
-19.016211,-38.704931,19.773854
-19.016211,-37.204931,19.773854
-18.102722,-33.701191,0.535321
-18.102722,-32.201191,0.535321
-18.102722,-30.701191,0.535321
-18.102722,-29.201191,0.535321
-18.102722,-27.701191,0.535321
-18.102722,-26.201191,0.535321
-18.102722,-24.701191,0.535321
-18.102722,-34.408331,1.927483
-18.102722,-32.908331,1.927483
-18.102722,-31.408331,1.927483
-18.102722,-29.908331,1.927483
-18.102722,-28.408331,1.927483
-18.102722,-26.908331,1.927483
-18.102722,-25.408331,1.927483
-18.102722,-23.908331,1.927483
-18.102722,-34.671537,3.319644
-18.102722,-33.171537,3.319644
-18.102722,-31.671537,3.319644
-18.102722,-30.171537,3.319644
-18.102722,-28.671537,3.319644
-18.102722,-27.171537,3.319644
-18.102722,-25.671537,3.319644
-18.102722,-24.171537,3.319644
-18.102722,-34.752479,4.711806
-18.102722,-33.252479,4.711806
-18.102722,-31.752479,4.711806
-18.102722,-30.252479,4.711806
-18.102722,-28.752479,4.711806
-18.102722,-27.252479,4.711806
-18.102722,-25.752479,4.711806
-18.102722,-24.252479,4.711806
-18.102722,-22.752479,4.711806
-18.102722,-34.851622,6.103967
-18.102722,-33.351622,6.103967
-18.102722,-31.851622,6.103967
-18.102722,-30.351622,6.103967
-18.102722,-28.851622,6.103967
-18.102722,-27.351622,6.103967
-18.102722,-25.851622,6.103967
-18.102722,-24.351622,6.103967
-18.102722,-22.851622,6.103967
-18.102722,-35.108230,7.496129
-18.102722,-33.608230,7.496129
-18.102722,-32.108230,7.496129
-18.102722,-30.608230,7.496129
-18.102722,-29.108230,7.496129
-18.102722,-27.608230,7.496129
-18.102722,-26.108230,7.496129
-18.102722,-24.608230,7.496129
-18.102722,-23.108230,7.496129
-18.102722,-35.600365,8.888290
-18.102722,-34.100365,8.888290
-18.102722,-32.600365,8.888290
-18.102722,-31.100365,8.888290
-18.102722,-29.600365,8.888290
-18.102722,-28.100365,8.888290
-18.102722,-26.600365,8.888290
-18.102722,-25.100365,8.888290
-18.102722,-23.600365,8.888290
-18.102722,-36.344883,10.280451
-18.102722,-34.844883,10.280451
-18.102722,-33.344883,10.280451
-18.102722,-31.844883,10.280451
-18.102722,-30.344883,10.280451
-18.102722,-28.844883,10.280451
-18.102722,-27.344883,10.280451
-18.102722,-25.844883,10.280451
-18.102722,-37.297443,11.672613
-18.102722,-35.797443,11.672613
-18.102722,-34.297443,11.672613
-18.102722,-32.797443,11.672613
-18.102722,-31.297443,11.672613
-18.102722,-29.797443,11.672613
-18.102722,-28.297443,11.672613
-18.102722,-26.797443,11.672613
-18.102722,-38.352497,13.064774
-18.102722,-36.852497,13.064774
-18.102722,-35.352497,13.064774
-18.102722,-33.852497,13.064774
-18.102722,-32.352497,13.064774
-18.102722,-30.852497,13.064774
-18.102722,-29.352497,13.064774
-18.102722,-27.852497,13.064774
-18.102722,-39.343296,14.456936
-18.102722,-37.843296,14.456936
-18.102722,-36.343296,14.456936
-18.102722,-34.843296,14.456936
-18.102722,-33.343296,14.456936
-18.102722,-31.843296,14.456936
-18.102722,-30.343296,14.456936
-18.102722,-40.041890,15.849097
-18.102722,-38.541890,15.849097
-18.102722,-37.041890,15.849097
-18.102722,-35.541890,15.849097
-18.102722,-34.041890,15.849097
-18.102722,-32.541890,15.849097
-18.102722,-40.159124,17.241259
-18.102722,-38.659124,17.241259
-18.102722,-37.159124,17.241259
-18.102722,-35.659124,17.241259
-18.102722,-34.159124,17.241259
-18.102722,-39.344641,18.633420
-18.102722,-37.844641,18.633420
-18.102722,-36.344641,18.633420
-18.102722,-34.844641,18.633420
-18.102722,-37.186883,20.025582
-18.102722,-35.686883,20.025582
-16.715571,-34.384495,0.534653
-16.715571,-32.884495,0.534653
-16.715571,-31.384495,0.534653
-16.715571,-29.884495,0.534653
-16.715571,-28.384495,0.534653
-16.715571,-26.884495,0.534653
-16.715571,-25.384495,0.534653
-16.715571,-34.988123,1.931418
-16.715571,-33.488123,1.931418
-16.715571,-31.988123,1.931418
-16.715571,-30.488123,1.931418
-16.715571,-28.988123,1.931418
-16.715571,-27.488123,1.931418
-16.715571,-25.988123,1.931418
-16.715571,-24.488123,1.931418
-16.715571,-35.125819,3.328182
-16.715571,-33.625819,3.328182
-16.715571,-32.125819,3.328182
-16.715571,-30.625819,3.328182
-16.715571,-29.125819,3.328182
-16.715571,-27.625819,3.328182
-16.715571,-26.125819,3.328182
-16.715571,-24.625819,3.328182
-16.715571,-23.125819,3.328182
-16.715571,-35.062796,4.724946
-16.715571,-33.562796,4.724946
-16.715571,-32.062796,4.724946
-16.715571,-30.562796,4.724946
-16.715571,-29.062796,4.724946
-16.715571,-27.562796,4.724946
-16.715571,-26.062796,4.724946
-16.715571,-24.562796,4.724946
-16.715571,-23.062796,4.724946
-16.715571,-35.002253,6.121711
-16.715571,-33.502253,6.121711
-16.715571,-32.002253,6.121711
-16.715571,-30.502253,6.121711
-16.715571,-29.002253,6.121711
-16.715571,-27.502253,6.121711
-16.715571,-26.002253,6.121711
-16.715571,-24.502253,6.121711
-16.715571,-23.002253,6.121711
-16.715571,-35.085374,7.518475
-16.715571,-33.585374,7.518475
-16.715571,-32.085374,7.518475
-16.715571,-30.585374,7.518475
-16.715571,-29.085374,7.518475
-16.715571,-27.585374,7.518475
-16.715571,-26.085374,7.518475
-16.715571,-24.585374,7.518475
-16.715571,-23.085374,7.518475
-16.715571,-35.391326,8.915239
-16.715571,-33.891326,8.915239
-16.715571,-32.391326,8.915239
-16.715571,-30.891326,8.915239
-16.715571,-29.391326,8.915239
-16.715571,-27.891326,8.915239
-16.715571,-26.391326,8.915239
-16.715571,-24.891326,8.915239
-16.715571,-23.391326,8.915239
-16.715571,-35.937260,10.312003
-16.715571,-34.437260,10.312003
-16.715571,-32.937260,10.312003
-16.715571,-31.437260,10.312003
-16.715571,-29.937260,10.312003
-16.715571,-28.437260,10.312003
-16.715571,-26.937260,10.312003
-16.715571,-25.437260,10.312003
-16.715571,-36.678312,11.708768
-16.715571,-35.178312,11.708768
-16.715571,-33.678312,11.708768
-16.715571,-32.178312,11.708768
-16.715571,-30.678312,11.708768
-16.715571,-29.178312,11.708768
-16.715571,-27.678312,11.708768
-16.715571,-26.178312,11.708768
-16.715571,-37.507600,13.105532
-16.715571,-36.007600,13.105532
-16.715571,-34.507600,13.105532
-16.715571,-33.007600,13.105532
-16.715571,-31.507600,13.105532
-16.715571,-30.007600,13.105532
-16.715571,-28.507600,13.105532
-16.715571,-38.256228,14.502296
-16.715571,-36.756228,14.502296
-16.715571,-35.256228,14.502296
-16.715571,-33.756228,14.502296
-16.715571,-32.256228,14.502296
-16.715571,-30.756228,14.502296
-16.715571,-29.256228,14.502296
-16.715571,-38.693284,15.899060
-16.715571,-37.193284,15.899060
-16.715571,-35.693284,15.899060
-16.715571,-34.193284,15.899060
-16.715571,-32.693284,15.899060
-16.715571,-31.193284,15.899060
-16.715571,-38.525839,17.295825
-16.715571,-37.025839,17.295825
-16.715571,-35.525839,17.295825
-16.715571,-34.025839,17.295825
-16.715571,-32.525839,17.295825
-16.715571,-37.398949,18.692589
-16.715571,-35.898949,18.692589
-16.715571,-34.398949,18.692589
-16.715571,-32.898949,18.692589
-16.715571,-34.895653,20.089353
-16.715571,-33.395653,20.089353
-15.734417,-34.870752,0.531691
-15.734417,-33.370752,0.531691
-15.734417,-31.870752,0.531691
-15.734417,-30.370752,0.531691
-15.734417,-28.870752,0.531691
-15.734417,-27.370752,0.531691
-15.734417,-25.870752,0.531691
-15.734417,-35.380030,1.912983
-15.734417,-33.880030,1.912983
-15.734417,-32.380030,1.912983
-15.734417,-30.880030,1.912983
-15.734417,-29.380030,1.912983
-15.734417,-27.880030,1.912983
-15.734417,-26.380030,1.912983
-15.734417,-24.880030,1.912983
-15.734417,-35.413983,3.294275
-15.734417,-33.913983,3.294275
-15.734417,-32.413983,3.294275
-15.734417,-30.913983,3.294275
-15.734417,-29.413983,3.294275
-15.734417,-27.913983,3.294275
-15.734417,-26.413983,3.294275
-15.734417,-24.913983,3.294275
-15.734417,-23.413983,3.294275
-15.734417,-35.231066,4.675566
-15.734417,-33.731066,4.675566
-15.734417,-32.231066,4.675566
-15.734417,-30.731066,4.675566
-15.734417,-29.231066,4.675566
-15.734417,-27.731066,4.675566
-15.734417,-26.231066,4.675566
-15.734417,-24.731066,4.675566
-15.734417,-23.231066,4.675566
-15.734417,-35.030424,6.056858
-15.734417,-33.530424,6.056858
-15.734417,-32.030424,6.056858
-15.734417,-30.530424,6.056858
-15.734417,-29.030424,6.056858
-15.734417,-27.530424,6.056858
-15.734417,-26.030424,6.056858
-15.734417,-24.530424,6.056858
-15.734417,-23.030424,6.056858
-15.734417,-34.951885,7.438149
-15.734417,-33.451885,7.438149
-15.734417,-31.951885,7.438149
-15.734417,-30.451885,7.438149
-15.734417,-28.951885,7.438149
-15.734417,-27.451885,7.438149
-15.734417,-25.951885,7.438149
-15.734417,-24.451885,7.438149
-15.734417,-22.951885,7.438149
-15.734417,-35.075966,8.819441
-15.734417,-33.575966,8.819441
-15.734417,-32.075966,8.819441
-15.734417,-30.575966,8.819441
-15.734417,-29.075966,8.819441
-15.734417,-27.575966,8.819441
-15.734417,-26.075966,8.819441
-15.734417,-24.575966,8.819441
-15.734417,-35.423870,10.200733
-15.734417,-33.923870,10.200733
-15.734417,-32.423870,10.200733
-15.734417,-30.923870,10.200733
-15.734417,-29.423870,10.200733
-15.734417,-27.923870,10.200733
-15.734417,-26.423870,10.200733
-15.734417,-24.923870,10.200733
-15.734417,-35.957486,11.582024
-15.734417,-34.457486,11.582024
-15.734417,-32.957486,11.582024
-15.734417,-31.457486,11.582024
-15.734417,-29.957486,11.582024
-15.734417,-28.457486,11.582024
-15.734417,-26.957486,11.582024
-15.734417,-25.457486,11.582024
-15.734417,-36.579390,12.963316
-15.734417,-35.079390,12.963316
-15.734417,-33.579390,12.963316
-15.734417,-32.079390,12.963316
-15.734417,-30.579390,12.963316
-15.734417,-29.079390,12.963316
-15.734417,-27.579390,12.963316
-15.734417,-37.132846,14.344608
-15.734417,-35.632846,14.344608
-15.734417,-34.132846,14.344608
-15.734417,-32.632846,14.344608
-15.734417,-31.132846,14.344608
-15.734417,-29.632846,14.344608
-15.734417,-28.132846,14.344608
-15.734417,-37.401804,15.725899
-15.734417,-35.901804,15.725899
-15.734417,-34.401804,15.725899
-15.734417,-32.901804,15.725899
-15.734417,-31.401804,15.725899
-15.734417,-29.901804,15.725899
-15.734417,-37.110898,17.107191
-15.734417,-35.610898,17.107191
-15.734417,-34.110898,17.107191
-15.734417,-32.610898,17.107191
-15.734417,-31.110898,17.107191
-15.734417,-35.925454,18.488483
-15.734417,-34.425454,18.488483
-15.734417,-32.925454,18.488483
-15.734417,-33.451479,19.869774
-15.734417,-31.951479,19.869774
-14.076603,-35.653716,0.522870
-14.076603,-34.153716,0.522870
-14.076603,-32.653716,0.522870
-14.076603,-31.153716,0.522870
-14.076603,-29.653716,0.522870
-14.076603,-28.153716,0.522870
-14.076603,-26.653716,0.522870
-14.076603,-35.971057,1.837817
-14.076603,-34.471057,1.837817
-14.076603,-32.971057,1.837817
-14.076603,-31.471057,1.837817
-14.076603,-29.971057,1.837817
-14.076603,-28.471057,1.837817
-14.076603,-26.971057,1.837817
-14.076603,-25.471057,1.837817
-14.076603,-35.815549,3.152763
-14.076603,-34.315549,3.152763
-14.076603,-32.815549,3.152763
-14.076603,-31.315549,3.152763
-14.076603,-29.815549,3.152763
-14.076603,-28.315549,3.152763
-14.076603,-26.815549,3.152763
-14.076603,-25.315549,3.152763
-14.076603,-35.415395,4.467710
-14.076603,-33.915395,4.467710
-14.076603,-32.415395,4.467710
-14.076603,-30.915395,4.467710
-14.076603,-29.415395,4.467710
-14.076603,-27.915395,4.467710
-14.076603,-26.415395,4.467710
-14.076603,-24.915395,4.467710
-14.076603,-34.950087,5.782656
-14.076603,-33.450087,5.782656
-14.076603,-31.950087,5.782656
-14.076603,-30.450087,5.782656
-14.076603,-28.950087,5.782656
-14.076603,-27.450087,5.782656
-14.076603,-25.950087,5.782656
-14.076603,-24.450087,5.782656
-14.076603,-34.550403,7.097603
-14.076603,-33.050403,7.097603
-14.076603,-31.550403,7.097603
-14.076603,-30.050403,7.097603
-14.076603,-28.550403,7.097603
-14.076603,-27.050403,7.097603
-14.076603,-25.550403,7.097603
-14.076603,-24.050403,7.097603
-14.076603,-34.298408,8.412549
-14.076603,-32.798408,8.412549
-14.076603,-31.298408,8.412549
-14.076603,-29.798408,8.412549
-14.076603,-28.298408,8.412549
-14.076603,-26.798408,8.412549
-14.076603,-25.298408,8.412549
-14.076603,-23.798408,8.412549
-14.076603,-34.227454,9.727496
-14.076603,-32.727454,9.727496
-14.076603,-31.227454,9.727496
-14.076603,-29.727454,9.727496
-14.076603,-28.227454,9.727496
-14.076603,-26.727454,9.727496
-14.076603,-25.227454,9.727496
-14.076603,-34.322180,11.042442
-14.076603,-32.822180,11.042442
-14.076603,-31.322180,11.042442
-14.076603,-29.822180,11.042442
-14.076603,-28.322180,11.042442
-14.076603,-26.822180,11.042442
-14.076603,-25.322180,11.042442
-14.076603,-34.518515,12.357389
-14.076603,-33.018515,12.357389
-14.076603,-31.518515,12.357389
-14.076603,-30.018515,12.357389
-14.076603,-28.518515,12.357389
-14.076603,-27.018515,12.357389
-14.076603,-34.703671,13.672335
-14.076603,-33.203671,13.672335
-14.076603,-31.703671,13.672335
-14.076603,-30.203671,13.672335
-14.076603,-28.703671,13.672335
-14.076603,-27.203671,13.672335
-14.076603,-34.716150,14.987282
-14.076603,-33.216150,14.987282
-14.076603,-31.716150,14.987282
-14.076603,-30.216150,14.987282
-14.076603,-28.716150,14.987282
-14.076603,-34.345741,16.302228
-14.076603,-32.845741,16.302228
-14.076603,-31.345741,16.302228
-14.076603,-29.845741,16.302228
-14.076603,-33.333518,17.617174
-14.076603,-31.833518,17.617174
-14.076603,-30.333518,17.617174
-14.076603,-31.371846,18.932121
-13.230779,-36.013815,0.517195
-13.230779,-34.513815,0.517195
-13.230779,-33.013815,0.517195
-13.230779,-31.513815,0.517195
-13.230779,-30.013815,0.517195
-13.230779,-28.513815,0.517195
-13.230779,-27.013815,0.517195
-13.230779,-36.222968,1.777016
-13.230779,-34.722968,1.777016
-13.230779,-33.222968,1.777016
-13.230779,-31.722968,1.777016
-13.230779,-30.222968,1.777016
-13.230779,-28.722968,1.777016
-13.230779,-27.222968,1.777016
-13.230779,-25.722968,1.777016
-13.230779,-35.972721,3.036837
-13.230779,-34.472721,3.036837
-13.230779,-32.972721,3.036837
-13.230779,-31.472721,3.036837
-13.230779,-29.972721,3.036837
-13.230779,-28.472721,3.036837
-13.230779,-26.972721,3.036837
-13.230779,-25.472721,3.036837
-13.230779,-35.467187,4.296658
-13.230779,-33.967187,4.296658
-13.230779,-32.467187,4.296658
-13.230779,-30.967187,4.296658
-13.230779,-29.467187,4.296658
-13.230779,-27.967187,4.296658
-13.230779,-26.467187,4.296658
-13.230779,-24.967187,4.296658
-13.230779,-34.869436,5.556479
-13.230779,-33.369436,5.556479
-13.230779,-31.869436,5.556479
-13.230779,-30.369436,5.556479
-13.230779,-28.869436,5.556479
-13.230779,-27.369436,5.556479
-13.230779,-25.869436,5.556479
-13.230779,-24.369436,5.556479
-13.230779,-34.301495,6.816300
-13.230779,-32.801495,6.816300
-13.230779,-31.301495,6.816300
-13.230779,-29.801495,6.816300
-13.230779,-28.301495,6.816300
-13.230779,-26.801495,6.816300
-13.230779,-25.301495,6.816300
-13.230779,-23.801495,6.816300
-13.230779,-33.844347,8.076121
-13.230779,-32.344347,8.076121
-13.230779,-30.844347,8.076121
-13.230779,-29.344347,8.076121
-13.230779,-27.844347,8.076121
-13.230779,-26.344347,8.076121
-13.230779,-24.844347,8.076121
-13.230779,-33.537931,9.335941
-13.230779,-32.037931,9.335941
-13.230779,-30.537931,9.335941
-13.230779,-29.037931,9.335941
-13.230779,-27.537931,9.335941
-13.230779,-26.037931,9.335941
-13.230779,-24.537931,9.335941
-13.230779,-33.381142,10.595762
-13.230779,-31.881142,10.595762
-13.230779,-30.381142,10.595762
-13.230779,-28.881142,10.595762
-13.230779,-27.381142,10.595762
-13.230779,-25.881142,10.595762
-13.230779,-33.331833,11.855583
-13.230779,-31.831833,11.855583
-13.230779,-30.331833,11.855583
-13.230779,-28.831833,11.855583
-13.230779,-27.331833,11.855583
-13.230779,-25.831833,11.855583
-13.230779,-33.306811,13.115404
-13.230779,-31.806811,13.115404
-13.230779,-30.306811,13.115404
-13.230779,-28.806811,13.115404
-13.230779,-27.306811,13.115404
-13.230779,-33.181842,14.375225
-13.230779,-31.681842,14.375225
-13.230779,-30.181842,14.375225
-13.230779,-28.681842,14.375225
-13.230779,-32.791646,15.635046
-13.230779,-31.291646,15.635046
-13.230779,-29.791646,15.635046
-13.230779,-31.929900,16.894867
-13.230779,-30.429900,16.894867
-13.230779,-30.349239,18.154688
-12.554120,-36.272669,0.512498
-12.554120,-34.772669,0.512498
-12.554120,-33.272669,0.512498
-12.554120,-31.772669,0.512498
-12.554120,-30.272669,0.512498
-12.554120,-28.772669,0.512498
-12.554120,-27.272669,0.512498
-12.554120,-36.393728,1.717178
-12.554120,-34.893728,1.717178
-12.554120,-33.393728,1.717178
-12.554120,-31.893728,1.717178
-12.554120,-30.393728,1.717178
-12.554120,-28.893728,1.717178
-12.554120,-27.393728,1.717178
-12.554120,-36.073529,2.921857
-12.554120,-34.573529,2.921857
-12.554120,-33.073529,2.921857
-12.554120,-31.573529,2.921857
-12.554120,-30.073529,2.921857
-12.554120,-28.573529,2.921857
-12.554120,-27.073529,2.921857
-12.554120,-25.573529,2.921857
-12.554120,-35.493411,4.126537
-12.554120,-33.993411,4.126537
-12.554120,-32.493411,4.126537
-12.554120,-30.993411,4.126537
-12.554120,-29.493411,4.126537
-12.554120,-27.993411,4.126537
-12.554120,-26.493411,4.126537
-12.554120,-24.993411,4.126537
-12.554120,-34.800398,5.331217
-12.554120,-33.300398,5.331217
-12.554120,-31.800398,5.331217
-12.554120,-30.300398,5.331217
-12.554120,-28.800398,5.331217
-12.554120,-27.300398,5.331217
-12.554120,-25.800398,5.331217
-12.554120,-24.300398,5.331217
-12.554120,-34.107198,6.535896
-12.554120,-32.607198,6.535896
-12.554120,-31.107198,6.535896
-12.554120,-29.607198,6.535896
-12.554120,-28.107198,6.535896
-12.554120,-26.607198,6.535896
-12.554120,-25.107198,6.535896
-12.554120,-33.492202,7.740576
-12.554120,-31.992202,7.740576
-12.554120,-30.492202,7.740576
-12.554120,-28.992202,7.740576
-12.554120,-27.492202,7.740576
-12.554120,-25.992202,7.740576
-12.554120,-24.492202,7.740576
-12.554120,-32.999486,8.945256
-12.554120,-31.499486,8.945256
-12.554120,-29.999486,8.945256
-12.554120,-28.499486,8.945256
-12.554120,-26.999486,8.945256
-12.554120,-25.499486,8.945256
-12.554120,-32.638809,10.149936
-12.554120,-31.138809,10.149936
-12.554120,-29.638809,10.149936
-12.554120,-28.138809,10.149936
-12.554120,-26.638809,10.149936
-12.554120,-25.138809,10.149936
-12.554120,-32.385615,11.354615
-12.554120,-30.885615,11.354615
-12.554120,-29.385615,11.354615
-12.554120,-27.885615,11.354615
-12.554120,-26.385615,11.354615
-12.554120,-32.181030,12.559295
-12.554120,-30.681030,12.559295
-12.554120,-29.181030,12.559295
-12.554120,-27.681030,12.559295
-12.554120,-26.181030,12.559295
-12.554120,-31.931866,13.763975
-12.554120,-30.431866,13.763975
-12.554120,-28.931866,13.763975
-12.554120,-27.431866,13.763975
-12.554120,-31.510619,14.968655
-12.554120,-30.010619,14.968655
-12.554120,-28.510619,14.968655
-12.554120,-30.755468,16.173334
-12.554120,-29.255468,16.173334
-12.554120,-29.470275,17.378014
-11.742129,-36.539508,0.507130
-11.742129,-35.039508,0.507130
-11.742129,-33.539508,0.507130
-11.742129,-32.039508,0.507130
-11.742129,-30.539508,0.507130
-11.742129,-29.039508,0.507130
-11.742129,-27.539508,0.507130
-11.742129,-36.556893,1.632202
-11.742129,-35.056893,1.632202
-11.742129,-33.556893,1.632202
-11.742129,-32.056893,1.632202
-11.742129,-30.556893,1.632202
-11.742129,-29.056893,1.632202
-11.742129,-27.556893,1.632202
-11.742129,-36.164453,2.757274
-11.742129,-34.664453,2.757274
-11.742129,-33.164453,2.757274
-11.742129,-31.664453,2.757274
-11.742129,-30.164453,2.757274
-11.742129,-28.664453,2.757274
-11.742129,-27.164453,2.757274
-11.742129,-35.513168,3.882346
-11.742129,-34.013168,3.882346
-11.742129,-32.513168,3.882346
-11.742129,-31.013168,3.882346
-11.742129,-29.513168,3.882346
-11.742129,-28.013168,3.882346
-11.742129,-26.513168,3.882346
-11.742129,-34.727916,5.007419
-11.742129,-33.227916,5.007419
-11.742129,-31.727916,5.007419
-11.742129,-30.227916,5.007419
-11.742129,-28.727916,5.007419
-11.742129,-27.227916,5.007419
-11.742129,-25.727916,5.007419
-11.742129,-33.907465,6.132491
-11.742129,-32.407465,6.132491
-11.742129,-30.907465,6.132491
-11.742129,-29.407465,6.132491
-11.742129,-27.907465,6.132491
-11.742129,-26.407465,6.132491
-11.742129,-24.907465,6.132491
-11.742129,-33.124482,7.257563
-11.742129,-31.624482,7.257563
-11.742129,-30.124482,7.257563
-11.742129,-28.624482,7.257563
-11.742129,-27.124482,7.257563
-11.742129,-25.624482,7.257563
-11.742129,-32.425525,8.382635
-11.742129,-30.925525,8.382635
-11.742129,-29.425525,8.382635
-11.742129,-27.925525,8.382635
-11.742129,-26.425525,8.382635
-11.742129,-24.925525,8.382635
-11.742129,-31.831048,9.507707
-11.742129,-30.331048,9.507707
-11.742129,-28.831048,9.507707
-11.742129,-27.331048,9.507707
-11.742129,-25.831048,9.507707
-11.742129,-31.335400,10.632779
-11.742129,-29.835400,10.632779
-11.742129,-28.335400,10.632779
-11.742129,-26.835400,10.632779
-11.742129,-25.335400,10.632779
-11.742129,-30.906822,11.757851
-11.742129,-29.406822,11.757851
-11.742129,-27.906822,11.757851
-11.742129,-26.406822,11.757851
-11.742129,-30.487453,12.882923
-11.742129,-28.987453,12.882923
-11.742129,-27.487453,12.882923
-11.742129,-29.993325,14.007995
-11.742129,-28.493325,14.007995
-11.742129,-29.314363,15.133067
-11.742129,-28.336203,16.258140
-11.031637,-36.725203,0.503118
-11.031637,-35.225203,0.503118
-11.031637,-33.725203,0.503118
-11.031637,-32.225203,0.503118
-11.031637,-30.725203,0.503118
-11.031637,-29.225203,0.503118
-11.031637,-36.657531,1.546180
-11.031637,-35.157531,1.546180
-11.031637,-33.657531,1.546180
-11.031637,-32.157531,1.546180
-11.031637,-30.657531,1.546180
-11.031637,-29.157531,1.546180
-11.031637,-27.657531,1.546180
-11.031637,-36.216644,2.589243
-11.031637,-34.716644,2.589243
-11.031637,-33.216644,2.589243
-11.031637,-31.716644,2.589243
-11.031637,-30.216644,2.589243
-11.031637,-28.716644,2.589243
-11.031637,-27.216644,2.589243
-11.031637,-35.525467,3.632306
-11.031637,-34.025467,3.632306
-11.031637,-32.525467,3.632306
-11.031637,-31.025467,3.632306
-11.031637,-29.525467,3.632306
-11.031637,-28.025467,3.632306
-11.031637,-26.525467,3.632306
-11.031637,-34.687633,4.675369
-11.031637,-33.187633,4.675369
-11.031637,-31.687633,4.675369
-11.031637,-30.187633,4.675369
-11.031637,-28.687633,4.675369
-11.031637,-27.187633,4.675369
-11.031637,-33.787493,5.718432
-11.031637,-32.287493,5.718432
-11.031637,-30.787493,5.718432
-11.031637,-29.287493,5.718432
-11.031637,-27.787493,5.718432
-11.031637,-26.287493,5.718432
-11.031637,-32.890109,6.761494
-11.031637,-31.390109,6.761494
-11.031637,-29.890109,6.761494
-11.031637,-28.390109,6.761494
-11.031637,-26.890109,6.761494
-11.031637,-25.390109,6.761494
-11.031637,-32.041257,7.804557
-11.031637,-30.541257,7.804557
-11.031637,-29.041257,7.804557
-11.031637,-27.541257,7.804557
-11.031637,-26.041257,7.804557
-11.031637,-31.267428,8.847620
-11.031637,-29.767428,8.847620
-11.031637,-28.267428,8.847620
-11.031637,-26.767428,8.847620
-11.031637,-25.267428,8.847620
-11.031637,-30.575824,9.890683
-11.031637,-29.075824,9.890683
-11.031637,-27.575824,9.890683
-11.031637,-26.075824,9.890683
-11.031637,-29.954362,10.933745
-11.031637,-28.454362,10.933745
-11.031637,-26.954362,10.933745
-11.031637,-29.371673,11.976808
-11.031637,-27.871673,11.976808
-11.031637,-26.371673,11.976808
-11.031637,-28.777101,13.019871
-11.031637,-27.277101,13.019871
-11.031637,-28.100703,14.062934
-11.031637,-27.847793,15.105997
-10.693309,-36.795413,0.501569
-10.693309,-35.295413,0.501569
-10.693309,-33.795413,0.501569
-10.693309,-32.295413,0.501569
-10.693309,-30.795413,0.501569
-10.693309,-29.295413,0.501569
-10.693309,-36.690291,1.501457
-10.693309,-35.190291,1.501457
-10.693309,-33.690291,1.501457
-10.693309,-32.190291,1.501457
-10.693309,-30.690291,1.501457
-10.693309,-29.190291,1.501457
-10.693309,-36.232373,2.501345
-10.693309,-34.732373,2.501345
-10.693309,-33.232373,2.501345
-10.693309,-31.732373,2.501345
-10.693309,-30.232373,2.501345
-10.693309,-28.732373,2.501345
-10.693309,-35.531130,3.501233
-10.693309,-34.031130,3.501233
-10.693309,-32.531130,3.501233
-10.693309,-31.031130,3.501233
-10.693309,-29.531130,3.501233
-10.693309,-28.031130,3.501233
-10.693309,-34.679744,4.501121
-10.693309,-33.179744,4.501121
-10.693309,-31.679744,4.501121
-10.693309,-30.179744,4.501121
-10.693309,-28.679744,4.501121
-10.693309,-27.179744,4.501121
-10.693309,-33.755115,5.501009
-10.693309,-32.255115,5.501009
-10.693309,-30.755115,5.501009
-10.693309,-29.255115,5.501009
-10.693309,-27.755115,5.501009
-10.693309,-26.255115,5.501009
-10.693309,-32.817854,6.500897
-10.693309,-31.317854,6.500897
-10.693309,-29.817854,6.500897
-10.693309,-28.317854,6.500897
-10.693309,-26.817854,6.500897
-10.693309,-31.912288,7.500784
-10.693309,-30.412288,7.500784
-10.693309,-28.912288,7.500784
-10.693309,-27.412288,7.500784
-10.693309,-25.912288,7.500784
-10.693309,-31.066456,8.500672
-10.693309,-29.566456,8.500672
-10.693309,-28.066456,8.500672
-10.693309,-26.566456,8.500672
-10.693309,-30.292112,9.500560
-10.693309,-28.792112,9.500560
-10.693309,-27.292112,9.500560
-10.693309,-25.792112,9.500560
-10.693309,-29.584724,10.500448
-10.693309,-28.084724,10.500448
-10.693309,-26.584724,10.500448
-10.693309,-28.923474,11.500336
-10.693309,-27.423474,11.500336
-10.693309,-28.271257,12.500224
-10.693309,-26.771257,12.500224
-10.693309,-27.574683,13.500112
-10.693309,-27.638355,14.500000
-25.106141,-31.371565,0.500253
-25.106141,-29.871565,0.500253
-25.106141,-28.371565,0.500253
-25.106141,-26.871565,0.500253
-25.106141,-32.120579,1.573592
-25.106141,-30.620579,1.573592
-25.106141,-29.120579,1.573592
-25.106141,-27.620579,1.573592
-25.106141,-26.120579,1.573592
-25.106141,-32.588240,2.646930
-25.106141,-31.088240,2.646930
-25.106141,-29.588240,2.646930
-25.106141,-28.088240,2.646930
-25.106141,-26.588240,2.646930
-25.106141,-25.088240,2.646930
-25.106141,-32.902017,3.720269
-25.106141,-31.402017,3.720269
-25.106141,-29.902017,3.720269
-25.106141,-28.402017,3.720269
-25.106141,-26.902017,3.720269
-25.106141,-25.402017,3.720269
-25.106141,-33.167754,4.793608
-25.106141,-31.667754,4.793608
-25.106141,-30.167754,4.793608
-25.106141,-28.667754,4.793608
-25.106141,-27.167754,4.793608
-25.106141,-25.667754,4.793608
-25.106141,-33.469670,5.866947
-25.106141,-31.969670,5.866947
-25.106141,-30.469670,5.866947
-25.106141,-28.969670,5.866947
-25.106141,-27.469670,5.866947
-25.106141,-25.969670,5.866947
-25.106141,-33.870358,6.940285
-25.106141,-32.370358,6.940285
-25.106141,-30.870358,6.940285
-25.106141,-29.370358,6.940285
-25.106141,-27.870358,6.940285
-25.106141,-26.370358,6.940285
-25.106141,-24.870358,6.940285
-25.106141,-34.410789,8.013624
-25.106141,-32.910789,8.013624
-25.106141,-31.410789,8.013624
-25.106141,-29.910789,8.013624
-25.106141,-28.410789,8.013624
-25.106141,-26.910789,8.013624
-25.106141,-25.410789,8.013624
-25.106141,-35.110304,9.086963
-25.106141,-33.610304,9.086963
-25.106141,-32.110304,9.086963
-25.106141,-30.610304,9.086963
-25.106141,-29.110304,9.086963
-25.106141,-27.610304,9.086963
-25.106141,-26.110304,9.086963
-25.106141,-35.966623,10.160301
-25.106141,-34.466623,10.160301
-25.106141,-32.966623,10.160301
-25.106141,-31.466623,10.160301
-25.106141,-29.966623,10.160301
-25.106141,-28.466623,10.160301
-25.106141,-36.955839,11.233640
-25.106141,-35.455839,11.233640
-25.106141,-33.955839,11.233640
-25.106141,-32.455839,11.233640
-25.106141,-30.955839,11.233640
-25.106141,-29.455839,11.233640
-25.106141,-38.032420,12.306979
-25.106141,-36.532420,12.306979
-25.106141,-35.032420,12.306979
-25.106141,-33.532420,12.306979
-25.106141,-32.032420,12.306979
-25.106141,-30.532420,12.306979
-25.106141,-39.129209,13.380317
-25.106141,-37.629209,13.380317
-25.106141,-36.129209,13.380317
-25.106141,-34.629209,13.380317
-25.106141,-33.129209,13.380317
-25.106141,-31.629209,13.380317
-25.106141,-40.157426,14.453656
-25.106141,-38.657426,14.453656
-25.106141,-37.157426,14.453656
-25.106141,-35.657426,14.453656
-25.106141,-34.157426,14.453656
-25.106141,-41.006662,15.526995
-25.106141,-39.506662,15.526995
-25.106141,-38.006662,15.526995
-25.106141,-36.506662,15.526995
-25.106141,-31.371565,0.500253
-25.106141,-29.871565,0.500253
-25.106141,-28.371565,0.500253
-25.106141,-26.871565,0.500253
-25.106141,-32.120579,1.573592
-25.106141,-30.620579,1.573592
-25.106141,-29.120579,1.573592
-25.106141,-27.620579,1.573592
-25.106141,-26.120579,1.573592
-25.106141,-32.588240,2.646930
-25.106141,-31.088240,2.646930
-25.106141,-29.588240,2.646930
-25.106141,-28.088240,2.646930
-25.106141,-26.588240,2.646930
-25.106141,-25.088240,2.646930
-25.106141,-32.902017,3.720269
-25.106141,-31.402017,3.720269
-25.106141,-29.902017,3.720269
-25.106141,-28.402017,3.720269
-25.106141,-26.902017,3.720269
-25.106141,-25.402017,3.720269
-25.106141,-33.167754,4.793608
-25.106141,-31.667754,4.793608
-25.106141,-30.167754,4.793608
-25.106141,-28.667754,4.793608
-25.106141,-27.167754,4.793608
-25.106141,-25.667754,4.793608
-25.106141,-33.469670,5.866947
-25.106141,-31.969670,5.866947
-25.106141,-30.469670,5.866947
-25.106141,-28.969670,5.866947
-25.106141,-27.469670,5.866947
-25.106141,-25.969670,5.866947
-25.106141,-33.870358,6.940285
-25.106141,-32.370358,6.940285
-25.106141,-30.870358,6.940285
-25.106141,-29.370358,6.940285
-25.106141,-27.870358,6.940285
-25.106141,-26.370358,6.940285
-25.106141,-24.870358,6.940285
-25.106141,-34.410789,8.013624
-25.106141,-32.910789,8.013624
-25.106141,-31.410789,8.013624
-25.106141,-29.910789,8.013624
-25.106141,-28.410789,8.013624
-25.106141,-26.910789,8.013624
-25.106141,-25.410789,8.013624
-25.106141,-35.110304,9.086963
-25.106141,-33.610304,9.086963
-25.106141,-32.110304,9.086963
-25.106141,-30.610304,9.086963
-25.106141,-29.110304,9.086963
-25.106141,-27.610304,9.086963
-25.106141,-26.110304,9.086963
-25.106141,-35.966623,10.160301
-25.106141,-34.466623,10.160301
-25.106141,-32.966623,10.160301
-25.106141,-31.466623,10.160301
-25.106141,-29.966623,10.160301
-25.106141,-28.466623,10.160301
-25.106141,-36.955839,11.233640
-25.106141,-35.455839,11.233640
-25.106141,-33.955839,11.233640
-25.106141,-32.455839,11.233640
-25.106141,-30.955839,11.233640
-25.106141,-29.455839,11.233640
-25.106141,-38.032420,12.306979
-25.106141,-36.532420,12.306979
-25.106141,-35.032420,12.306979
-25.106141,-33.532420,12.306979
-25.106141,-32.032420,12.306979
-25.106141,-30.532420,12.306979
-25.106141,-39.129209,13.380317
-25.106141,-37.629209,13.380317
-25.106141,-36.129209,13.380317
-25.106141,-34.629209,13.380317
-25.106141,-33.129209,13.380317
-25.106141,-31.629209,13.380317
-25.106141,-40.157426,14.453656
-25.106141,-38.657426,14.453656
-25.106141,-37.157426,14.453656
-25.106141,-35.657426,14.453656
-25.106141,-34.157426,14.453656
-25.106141,-41.006662,15.526995
-25.106141,-39.506662,15.526995
-25.106141,-38.006662,15.526995
-25.106141,-36.506662,15.526995
-24.327983,-31.485549,0.502974
-24.327983,-29.985549,0.502974
-24.327983,-28.485549,0.502974
-24.327983,-26.985549,0.502974
-24.327983,-25.485549,0.502974
-24.327983,-32.257612,1.623822
-24.327983,-30.757612,1.623822
-24.327983,-29.257612,1.623822
-24.327983,-27.757612,1.623822
-24.327983,-26.257612,1.623822
-24.327983,-32.729516,2.744670
-24.327983,-31.229516,2.744670
-24.327983,-29.729516,2.744670
-24.327983,-28.229516,2.744670
-24.327983,-26.729516,2.744670
-24.327983,-25.229516,2.744670
-24.327983,-33.045072,3.865517
-24.327983,-31.545072,3.865517
-24.327983,-30.045072,3.865517
-24.327983,-28.545072,3.865517
-24.327983,-27.045072,3.865517
-24.327983,-25.545072,3.865517
-24.327983,-33.322377,4.986365
-24.327983,-31.822377,4.986365
-24.327983,-30.322377,4.986365
-24.327983,-28.822377,4.986365
-24.327983,-27.322377,4.986365
-24.327983,-25.822377,4.986365
-24.327983,-24.322377,4.986365
-24.327983,-33.653812,6.107213
-24.327983,-32.153812,6.107213
-24.327983,-30.653812,6.107213
-24.327983,-29.153812,6.107213
-24.327983,-27.653812,6.107213
-24.327983,-26.153812,6.107213
-24.327983,-24.653812,6.107213
-24.327983,-34.106041,7.228060
-24.327983,-32.606041,7.228060
-24.327983,-31.106041,7.228060
-24.327983,-29.606041,7.228060
-24.327983,-28.106041,7.228060
-24.327983,-26.606041,7.228060
-24.327983,-25.106041,7.228060
-24.327983,-34.720013,8.348908
-24.327983,-33.220013,8.348908
-24.327983,-31.720013,8.348908
-24.327983,-30.220013,8.348908
-24.327983,-28.720013,8.348908
-24.327983,-27.220013,8.348908
-24.327983,-25.720013,8.348908
-24.327983,-35.510962,9.469756
-24.327983,-34.010962,9.469756
-24.327983,-32.510962,9.469756
-24.327983,-31.010962,9.469756
-24.327983,-29.510962,9.469756
-24.327983,-28.010962,9.469756
-24.327983,-26.510962,9.469756
-24.327983,-36.468406,10.590604
-24.327983,-34.968406,10.590604
-24.327983,-33.468406,10.590604
-24.327983,-31.968406,10.590604
-24.327983,-30.468406,10.590604
-24.327983,-28.968406,10.590604
-24.327983,-27.468406,10.590604
-24.327983,-37.556147,11.711451
-24.327983,-36.056147,11.711451
-24.327983,-34.556147,11.711451
-24.327983,-33.056147,11.711451
-24.327983,-31.556147,11.711451
-24.327983,-30.056147,11.711451
-24.327983,-38.712271,12.832299
-24.327983,-37.212271,12.832299
-24.327983,-35.712271,12.832299
-24.327983,-34.212271,12.832299
-24.327983,-32.712271,12.832299
-24.327983,-31.212271,12.832299
-24.327983,-39.849150,13.953147
-24.327983,-38.349150,13.953147
-24.327983,-36.849150,13.953147
-24.327983,-35.349150,13.953147
-24.327983,-33.849150,13.953147
-24.327983,-32.349150,13.953147
-24.327983,-40.853440,15.073994
-24.327983,-39.353440,15.073994
-24.327983,-37.853440,15.073994
-24.327983,-36.353440,15.073994
-24.327983,-34.853440,15.073994
-24.327983,-41.586079,16.194842
-24.327983,-40.086079,16.194842
-24.327983,-38.586079,16.194842
-24.327983,-37.086079,16.194842
-23.921988,-31.562234,0.505012
-23.921988,-30.062234,0.505012
-23.921988,-28.562234,0.505012
-23.921988,-27.062234,0.505012
-23.921988,-25.562234,0.505012
-23.921988,-32.344709,1.650359
-23.921988,-30.844709,1.650359
-23.921988,-29.344709,1.650359
-23.921988,-27.844709,1.650359
-23.921988,-26.344709,1.650359
-23.921988,-24.844709,1.650359
-23.921988,-32.817110,2.795705
-23.921988,-31.317110,2.795705
-23.921988,-29.817110,2.795705
-23.921988,-28.317110,2.795705
-23.921988,-26.817110,2.795705
-23.921988,-25.317110,2.795705
-23.921988,-33.132134,3.941052
-23.921988,-31.632134,3.941052
-23.921988,-30.132134,3.941052
-23.921988,-28.632134,3.941052
-23.921988,-27.132134,3.941052
-23.921988,-25.632134,3.941052
-23.921988,-33.414438,5.086398
-23.921988,-31.914438,5.086398
-23.921988,-30.414438,5.086398
-23.921988,-28.914438,5.086398
-23.921988,-27.414438,5.086398
-23.921988,-25.914438,5.086398
-23.921988,-24.414438,5.086398
-23.921988,-33.760642,6.231745
-23.921988,-32.260642,6.231745
-23.921988,-30.760642,6.231745
-23.921988,-29.260642,6.231745
-23.921988,-27.760642,6.231745
-23.921988,-26.260642,6.231745
-23.921988,-24.760642,6.231745
-23.921988,-34.239327,7.377091
-23.921988,-32.739327,7.377091
-23.921988,-31.239327,7.377091
-23.921988,-29.739327,7.377091
-23.921988,-28.239327,7.377091
-23.921988,-26.739327,7.377091
-23.921988,-25.239327,7.377091
-23.921988,-34.891032,8.522438
-23.921988,-33.391032,8.522438
-23.921988,-31.891032,8.522438
-23.921988,-30.391032,8.522438
-23.921988,-28.891032,8.522438
-23.921988,-27.391032,8.522438
-23.921988,-25.891032,8.522438
-23.921988,-35.728263,9.667784
-23.921988,-34.228263,9.667784
-23.921988,-32.728263,9.667784
-23.921988,-31.228263,9.667784
-23.921988,-29.728263,9.667784
-23.921988,-28.228263,9.667784
-23.921988,-26.728263,9.667784
-23.921988,-36.735483,10.813131
-23.921988,-35.235483,10.813131
-23.921988,-33.735483,10.813131
-23.921988,-32.235483,10.813131
-23.921988,-30.735483,10.813131
-23.921988,-29.235483,10.813131
-23.921988,-27.735483,10.813131
-23.921988,-37.869117,11.958477
-23.921988,-36.369117,11.958477
-23.921988,-34.869117,11.958477
-23.921988,-33.369117,11.958477
-23.921988,-31.869117,11.958477
-23.921988,-30.369117,11.958477
-23.921988,-28.869117,11.958477
-23.921988,-39.057552,13.103824
-23.921988,-37.557552,13.103824
-23.921988,-36.057552,13.103824
-23.921988,-34.557552,13.103824
-23.921988,-33.057552,13.103824
-23.921988,-31.557552,13.103824
-23.921988,-40.201137,14.249170
-23.921988,-38.701137,14.249170
-23.921988,-37.201137,14.249170
-23.921988,-35.701137,14.249170
-23.921988,-34.201137,14.249170
-23.921988,-32.701137,14.249170
-23.921988,-41.172180,15.394517
-23.921988,-39.672180,15.394517
-23.921988,-38.172180,15.394517
-23.921988,-36.672180,15.394517
-23.921988,-35.172180,15.394517
-23.921988,-41.814953,16.539863
-23.921988,-40.314953,16.539863
-23.921988,-38.814953,16.539863
-23.921988,-37.314953,16.539863
-23.312995,-31.698608,0.508616
-23.312995,-30.198608,0.508616
-23.312995,-28.698608,0.508616
-23.312995,-27.198608,0.508616
-23.312995,-25.698608,0.508616
-23.312995,-32.494170,1.689995
-23.312995,-30.994170,1.689995
-23.312995,-29.494170,1.689995
-23.312995,-27.994170,1.689995
-23.312995,-26.494170,1.689995
-23.312995,-24.994170,1.689995
-23.312995,-32.964722,2.871374
-23.312995,-31.464722,2.871374
-23.312995,-29.964722,2.871374
-23.312995,-28.464722,2.871374
-23.312995,-26.964722,2.871374
-23.312995,-25.464722,2.871374
-23.312995,-33.276605,4.052753
-23.312995,-31.776605,4.052753
-23.312995,-30.276605,4.052753
-23.312995,-28.776605,4.052753
-23.312995,-27.276605,4.052753
-23.312995,-25.776605,4.052753
-23.312995,-24.276605,4.052753
-23.312995,-33.564422,5.234133
-23.312995,-32.064422,5.234133
-23.312995,-30.564422,5.234133
-23.312995,-29.064422,5.234133
-23.312995,-27.564422,5.234133
-23.312995,-26.064422,5.234133
-23.312995,-24.564422,5.234133
-23.312995,-33.931041,6.415512
-23.312995,-32.431041,6.415512
-23.312995,-30.931041,6.415512
-23.312995,-29.431041,6.415512
-23.312995,-27.931041,6.415512
-23.312995,-26.431041,6.415512
-23.312995,-24.931041,6.415512
-23.312995,-34.447591,7.596891
-23.312995,-32.947591,7.596891
-23.312995,-31.447591,7.596891
-23.312995,-29.947591,7.596891
-23.312995,-28.447591,7.596891
-23.312995,-26.947591,7.596891
-23.312995,-25.447591,7.596891
-23.312995,-35.153466,8.778270
-23.312995,-33.653466,8.778270
-23.312995,-32.153466,8.778270
-23.312995,-30.653466,8.778270
-23.312995,-29.153466,8.778270
-23.312995,-27.653466,8.778270
-23.312995,-26.153466,8.778270
-23.312995,-36.056322,9.959650
-23.312995,-34.556322,9.959650
-23.312995,-33.056322,9.959650
-23.312995,-31.556322,9.959650
-23.312995,-30.056322,9.959650
-23.312995,-28.556322,9.959650
-23.312995,-27.056322,9.959650
-23.312995,-37.132075,11.141029
-23.312995,-35.632075,11.141029
-23.312995,-34.132075,11.141029
-23.312995,-32.632075,11.141029
-23.312995,-31.132075,11.141029
-23.312995,-29.632075,11.141029
-23.312995,-28.132075,11.141029
-23.312995,-38.324908,12.322408
-23.312995,-36.824908,12.322408
-23.312995,-35.324908,12.322408
-23.312995,-33.824908,12.322408
-23.312995,-32.324908,12.322408
-23.312995,-30.824908,12.322408
-23.312995,-29.324908,12.322408
-23.312995,-39.547264,13.503787
-23.312995,-38.047264,13.503787
-23.312995,-36.547264,13.503787
-23.312995,-35.047264,13.503787
-23.312995,-33.547264,13.503787
-23.312995,-32.047264,13.503787
-23.312995,-40.679851,14.685167
-23.312995,-39.179851,14.685167
-23.312995,-37.679851,14.685167
-23.312995,-36.179851,14.685167
-23.312995,-34.679851,14.685167
-23.312995,-33.179851,14.685167
-23.312995,-41.571638,15.866546
-23.312995,-40.071638,15.866546
-23.312995,-38.571638,15.866546
-23.312995,-37.071638,15.866546
-23.312995,-35.571638,15.866546
-23.312995,-42.039858,17.047925
-23.312995,-40.539858,17.047925
-23.312995,-39.039858,17.047925
-23.312995,-37.539858,17.047925
-22.771668,-31.840512,0.512172
-22.771668,-30.340512,0.512172
-22.771668,-28.840512,0.512172
-22.771668,-27.340512,0.512172
-22.771668,-25.840512,0.512172
-22.771668,-32.644747,1.724549
-22.771668,-31.144747,1.724549
-22.771668,-29.644747,1.724549
-22.771668,-28.144747,1.724549
-22.771668,-26.644747,1.724549
-22.771668,-25.144747,1.724549
-22.771668,-33.110686,2.936926
-22.771668,-31.610686,2.936926
-22.771668,-30.110686,2.936926
-22.771668,-28.610686,2.936926
-22.771668,-27.110686,2.936926
-22.771668,-25.610686,2.936926
-22.771668,-24.110686,2.936926
-22.771668,-33.416968,4.149303
-22.771668,-31.916968,4.149303
-22.771668,-30.416968,4.149303
-22.771668,-28.916968,4.149303
-22.771668,-27.416968,4.149303
-22.771668,-25.916968,4.149303
-22.771668,-24.416968,4.149303
-22.771668,-33.707032,5.361680
-22.771668,-32.207032,5.361680
-22.771668,-30.707032,5.361680
-22.771668,-29.207032,5.361680
-22.771668,-27.707032,5.361680
-22.771668,-26.207032,5.361680
-22.771668,-24.707032,5.361680
-22.771668,-34.089113,6.574057
-22.771668,-32.589113,6.574057
-22.771668,-31.089113,6.574057
-22.771668,-29.589113,6.574057
-22.771668,-28.089113,6.574057
-22.771668,-26.589113,6.574057
-22.771668,-25.089113,6.574057
