31.499920,-30.677327,1.543296
31.499920,-29.177327,1.543296
31.499920,-27.677327,1.543296
31.499920,-26.177327,1.543296
31.499920,-24.677327,1.543296
31.499920,-31.140502,2.586999
31.499920,-29.640502,2.586999
31.499920,-28.140502,2.586999
31.499920,-26.640502,2.586999
31.499920,-25.140502,2.586999
31.499920,-31.451690,3.630702
31.499920,-29.951690,3.630702
31.499920,-28.451690,3.630702
31.499920,-26.951690,3.630702
31.499920,-25.451690,3.630702
31.499920,-23.951690,3.630702
31.499920,-31.709415,4.674405
31.499920,-30.209415,4.674405
31.499920,-28.709415,4.674405
31.499920,-27.209415,4.674405
31.499920,-25.709415,4.674405
31.499920,-24.209415,4.674405
31.499920,-31.992867,5.718107
31.499920,-30.492867,5.718107
31.499920,-28.992867,5.718107
31.499920,-27.492867,5.718107
31.499920,-25.992867,5.718107
31.499920,-24.492867,5.718107
31.499920,-32.361901,6.761810
31.499920,-30.861901,6.761810
31.499920,-29.361901,6.761810
31.499920,-27.861901,6.761810
31.499920,-26.361901,6.761810
31.499920,-24.861901,6.761810
31.499920,-32.857040,7.805513
31.499920,-31.357040,7.805513
31.499920,-29.857040,7.805513
31.499920,-28.357040,7.805513
31.499920,-26.857040,7.805513
31.499920,-25.357040,7.805513
31.499920,-33.499472,8.849216
31.499920,-31.999472,8.849216
31.499920,-30.499472,8.849216
31.499920,-28.999472,8.849216
31.499920,-27.499472,8.849216
31.499920,-25.999472,8.849216
31.499920,-34.291050,9.892919
31.499920,-32.791050,9.892919
31.499920,-31.291050,9.892919
31.499920,-29.791050,9.892919
31.499920,-28.291050,9.892919
31.499920,-26.791050,9.892919
31.499920,-35.214296,10.936621
31.499920,-33.714296,10.936621
31.499920,-32.214296,10.936621
31.499920,-30.714296,10.936621
31.499920,-29.214296,10.936621
31.499920,-27.714296,10.936621
31.499920,-36.232396,11.980324
31.499920,-34.732396,11.980324
31.499920,-33.232396,11.980324
31.499920,-31.732396,11.980324
31.499920,-30.232396,11.980324
31.499920,-28.732396,11.980324
31.499920,-37.289203,13.024027
31.499920,-35.789203,13.024027
31.499920,-34.289203,13.024027
31.499920,-32.789203,13.024027
31.499920,-31.289203,13.024027
31.499920,-38.309235,14.067730
31.499920,-36.809235,14.067730
31.499920,-35.309235,14.067730
31.499920,-33.809235,14.067730
31.499920,-32.309235,14.067730
31.499920,-39.197678,15.111433
31.499920,-37.697678,15.111433
31.499920,-36.197678,15.111433
31.499920,-34.697678,15.111433
29.891194,-30.171091,0.504682
29.891194,-28.671091,0.504682
29.891194,-27.171091,0.504682
29.891194,-25.671091,0.504682
29.891194,-24.171091,0.504682
29.891194,-30.952070,1.646337
29.891194,-29.452070,1.646337
29.891194,-27.952070,1.646337
29.891194,-26.452070,1.646337
29.891194,-24.952070,1.646337
29.891194,-23.452070,1.646337
29.891194,-31.424480,2.787992
29.891194,-29.924480,2.787992
29.891194,-28.424480,2.787992
29.891194,-26.924480,2.787992
29.891194,-25.424480,2.787992
29.891194,-23.924480,2.787992
29.891194,-31.739658,3.929647
29.891194,-30.239658,3.929647
29.891194,-28.739658,3.929647
29.891194,-27.239658,3.929647
29.891194,-25.739658,3.929647
29.891194,-24.239658,3.929647
29.891194,-32.021265,5.071303
29.891194,-30.521265,5.071303
29.891194,-29.021265,5.071303
29.891194,-27.521265,5.071303
29.891194,-26.021265,5.071303
29.891194,-24.521265,5.071303
29.891194,-23.021265,5.071303
29.891194,-32.365278,6.212958
29.891194,-30.865278,6.212958
29.891194,-29.365278,6.212958
29.891194,-27.865278,6.212958
29.891194,-26.365278,6.212958
29.891194,-24.865278,6.212958
29.891194,-23.365278,6.212958
29.891194,-32.840000,7.354613
29.891194,-31.340000,7.354613
29.891194,-29.840000,7.354613
29.891194,-28.340000,7.354613
29.891194,-26.840000,7.354613
29.891194,-25.340000,7.354613
29.891194,-23.840000,7.354613
29.891194,-33.486051,8.496269
29.891194,-31.986051,8.496269
29.891194,-30.486051,8.496269
29.891194,-28.986051,8.496269
29.891194,-27.486051,8.496269
29.891194,-25.986051,8.496269
29.891194,-24.486051,8.496269
29.891194,-34.316374,9.637924
29.891194,-32.816374,9.637924
29.891194,-31.316374,9.637924
29.891194,-29.816374,9.637924
29.891194,-28.316374,9.637924
29.891194,-26.816374,9.637924
29.891194,-25.316374,9.637924
29.891194,-35.316234,10.779579
29.891194,-33.816234,10.779579
29.891194,-32.316234,10.779579
29.891194,-30.816234,10.779579
29.891194,-29.316234,10.779579
29.891194,-27.816234,10.779579
29.891194,-26.316234,10.779579
29.891194,-36.443214,11.921235
29.891194,-34.943214,11.921235
29.891194,-33.443214,11.921235
29.891194,-31.943214,11.921235
29.891194,-30.443214,11.921235
29.891194,-28.943214,11.921235
29.891194,-27.443214,11.921235
29.891194,-37.627221,13.062890
29.891194,-36.127221,13.062890
29.891194,-34.627221,13.062890
29.891194,-33.127221,13.062890
29.891194,-31.627221,13.062890
29.891194,-30.127221,13.062890
29.891194,-38.770480,14.204545
29.891194,-37.270480,14.204545
29.891194,-35.770480,14.204545
29.891194,-34.270480,14.204545
29.891194,-32.770480,14.204545
29.891194,-31.270480,14.204545
29.891194,-39.747540,15.346200
29.891194,-38.247540,15.346200
29.891194,-36.747540,15.346200
29.891194,-35.247540,15.346200
29.891194,-33.747540,15.346200
29.891194,-40.405269,16.487856
29.891194,-38.905269,16.487856
29.891194,-37.405269,16.487856
29.891194,-35.905269,16.487856
29.721855,-30.205718,0.505607
29.721855,-28.705718,0.505607
29.721855,-27.205718,0.505607
29.721855,-25.705718,0.505607
29.721855,-24.205718,0.505607
29.721855,-30.990739,1.657395
29.721855,-29.490739,1.657395
29.721855,-27.990739,1.657395
29.721855,-26.490739,1.657395
29.721855,-24.990739,1.657395
29.721855,-23.490739,1.657395
29.721855,-31.463050,2.809183
29.721855,-29.963050,2.809183
29.721855,-28.463050,2.809183
29.721855,-26.963050,2.809183
29.721855,-25.463050,2.809183
29.721855,-23.963050,2.809183
29.721855,-31.777736,3.960971
29.721855,-30.277736,3.960971
29.721855,-28.777736,3.960971
29.721855,-27.277736,3.960971
29.721855,-25.777736,3.960971
29.721855,-24.277736,3.960971
29.721855,-22.777736,3.960971
29.721855,-32.061206,5.112759
29.721855,-30.561206,5.112759
29.721855,-29.061206,5.112759
29.721855,-27.561206,5.112759
29.721855,-26.061206,5.112759
29.721855,-24.561206,5.112759
29.721855,-23.061206,5.112759
29.721855,-32.411196,6.264547
29.721855,-30.911196,6.264547
29.721855,-29.411196,6.264547
29.721855,-27.911196,6.264547
29.721855,-26.411196,6.264547
29.721855,-24.911196,6.264547
29.721855,-23.411196,6.264547
29.721855,-32.896767,7.416334
29.721855,-31.396767,7.416334
29.721855,-29.896767,7.416334
29.721855,-28.396767,7.416334
29.721855,-26.896767,7.416334
29.721855,-25.396767,7.416334
29.721855,-23.896767,7.416334
29.721855,-33.558304,8.568122
29.721855,-32.058304,8.568122
29.721855,-30.558304,8.568122
29.721855,-29.058304,8.568122
29.721855,-27.558304,8.568122
29.721855,-26.058304,8.568122
29.721855,-24.558304,8.568122
29.721855,-34.407519,9.719910
29.721855,-32.907519,9.719910
29.721855,-31.407519,9.719910
29.721855,-29.907519,9.719910
29.721855,-28.407519,9.719910
29.721855,-26.907519,9.719910
29.721855,-25.407519,9.719910
29.721855,-35.427448,10.871698
29.721855,-33.927448,10.871698
29.721855,-32.427448,10.871698
29.721855,-30.927448,10.871698
29.721855,-29.427448,10.871698
29.721855,-27.927448,10.871698
29.721855,-26.427448,10.871698
29.721855,-36.572452,12.023486
29.721855,-35.072452,12.023486
29.721855,-33.572452,12.023486
29.721855,-32.072452,12.023486
29.721855,-30.572452,12.023486
29.721855,-29.072452,12.023486
29.721855,-27.572452,12.023486
29.721855,-37.768217,13.175274
29.721855,-36.268217,13.175274
29.721855,-34.768217,13.175274
29.721855,-33.268217,13.175274
29.721855,-31.768217,13.175274
29.721855,-30.268217,13.175274
29.721855,-38.911756,14.327061
29.721855,-37.411756,14.327061
29.721855,-35.911756,14.327061
29.721855,-34.411756,14.327061
29.721855,-32.911756,14.327061
29.721855,-31.411756,14.327061
29.721855,-39.871404,15.478849
29.721855,-38.371404,15.478849
29.721855,-36.871404,15.478849
29.721855,-35.371404,15.478849
29.721855,-33.871404,15.478849
29.721855,-40.486825,16.630637
29.721855,-38.986825,16.630637
29.721855,-37.486825,16.630637
29.721855,-35.986825,16.630637
28.705818,-30.454018,0.511986
28.705818,-28.954018,0.511986
28.705818,-27.454018,0.511986
28.705818,-25.954018,0.511986
28.705818,-24.454018,0.511986
28.705818,-31.257884,1.722807
28.705818,-29.757884,1.722807
28.705818,-28.257884,1.722807
28.705818,-26.757884,1.722807
28.705818,-25.257884,1.722807
28.705818,-23.757884,1.722807
28.705818,-31.724133,2.933628
28.705818,-30.224133,2.933628
28.705818,-28.724133,2.933628
28.705818,-27.224133,2.933628
28.705818,-25.724133,2.933628
28.705818,-24.224133,2.933628
28.705818,-22.724133,2.933628
28.705818,-32.030773,4.144449
28.705818,-30.530773,4.144449
28.705818,-29.030773,4.144449
28.705818,-27.530773,4.144449
28.705818,-26.030773,4.144449
28.705818,-24.530773,4.144449
28.705818,-23.030773,4.144449
28.705818,-32.320794,5.355270
28.705818,-30.820794,5.355270
28.705818,-29.320794,5.355270
28.705818,-27.820794,5.355270
28.705818,-26.320794,5.355270
28.705818,-24.820794,5.355270
28.705818,-23.320794,5.355270
28.705818,-32.702163,6.566092
28.705818,-31.202163,6.566092
28.705818,-29.702163,6.566092
28.705818,-28.202163,6.566092
28.705818,-26.702163,6.566092
28.705818,-25.202163,6.566092
28.705818,-23.702163,6.566092
28.705818,-33.247826,7.776913
28.705818,-31.747826,7.776913
28.705818,-30.247826,7.776913
28.705818,-28.747826,7.776913
28.705818,-27.247826,7.776913
28.705818,-25.747826,7.776913
28.705818,-24.247826,7.776913
28.705818,-33.995707,8.987734
28.705818,-32.495707,8.987734
28.705818,-30.995707,8.987734
28.705818,-29.495707,8.987734
28.705818,-27.995707,8.987734
28.705818,-26.495707,8.987734
28.705818,-24.995707,8.987734
28.705818,-34.948711,10.198555
28.705818,-33.448711,10.198555
28.705818,-31.948711,10.198555
28.705818,-30.448711,10.198555
28.705818,-28.948711,10.198555
28.705818,-27.448711,10.198555
28.705818,-25.948711,10.198555
28.705818,-36.074721,11.409376
28.705818,-34.574721,11.409376
28.705818,-33.074721,11.409376
28.705818,-31.574721,11.409376
28.705818,-30.074721,11.409376
28.705818,-28.574721,11.409376
28.705818,-27.074721,11.409376
28.705818,-37.306597,12.620198
28.705818,-35.806597,12.620198
28.705818,-34.306597,12.620198
28.705818,-32.806597,12.620198
28.705818,-31.306597,12.620198
28.705818,-29.806597,12.620198
28.705818,-28.306597,12.620198
28.705818,-38.542179,13.831019
28.705818,-37.042179,13.831019
28.705818,-35.542179,13.831019
28.705818,-34.042179,13.831019
28.705818,-32.542179,13.831019
28.705818,-31.042179,13.831019
28.705818,-39.644288,15.041840
28.705818,-38.144288,15.041840
28.705818,-36.644288,15.041840
28.705818,-35.144288,15.041840
28.705818,-33.644288,15.041840
28.705818,-32.144288,15.041840
28.705818,-40.440720,16.252661
28.705818,-38.940720,16.252661
28.705818,-37.440720,16.252661
28.705818,-35.940720,16.252661
28.705818,-34.440720,16.252661
28.705818,-40.724252,17.463483
28.705818,-39.224252,17.463483
28.705818,-37.724252,17.463483
28.705818,-36.224252,17.463483
26.758414,-31.105843,0.524929
26.758414,-29.605843,0.524929
26.758414,-28.105843,0.524929
26.758414,-26.605843,0.524929
26.758414,-25.105843,0.524929
26.758414,-23.605843,0.524929
26.758414,-31.912259,1.834526
26.758414,-30.412259,1.834526
26.758414,-28.912259,1.834526
26.758414,-27.412259,1.834526
26.758414,-25.912259,1.834526
26.758414,-24.412259,1.834526
26.758414,-22.912259,1.834526
26.758414,-32.334074,3.144124
26.758414,-30.834074,3.144124
26.758414,-29.334074,3.144124
26.758414,-27.834074,3.144124
26.758414,-26.334074,3.144124
26.758414,-24.834074,3.144124
26.758414,-23.334074,3.144124
26.758414,-32.592026,4.453722
26.758414,-31.092026,4.453722
26.758414,-29.592026,4.453722
26.758414,-28.092026,4.453722
26.758414,-26.592026,4.453722
26.758414,-25.092026,4.453722
26.758414,-23.592026,4.453722
26.758414,-22.092026,4.453722
26.758414,-32.858931,5.763320
26.758414,-31.358931,5.763320
26.758414,-29.858931,5.763320
26.758414,-28.358931,5.763320
26.758414,-26.858931,5.763320
26.758414,-25.358931,5.763320
26.758414,-23.858931,5.763320
26.758414,-22.358931,5.763320
26.758414,-33.259675,7.072917
26.758414,-31.759675,7.072917
26.758414,-30.259675,7.072917
26.758414,-28.759675,7.072917
26.758414,-27.259675,7.072917
26.758414,-25.759675,7.072917
26.758414,-24.259675,7.072917
26.758414,-22.759675,7.072917
26.758414,-33.871224,8.382515
26.758414,-32.371224,8.382515
26.758414,-30.871224,8.382515
26.758414,-29.371224,8.382515
26.758414,-27.871224,8.382515
26.758414,-26.371224,8.382515
26.758414,-24.871224,8.382515
26.758414,-23.371224,8.382515
26.758414,-34.722616,9.692113
26.758414,-33.222616,9.692113
26.758414,-31.722616,9.692113
26.758414,-30.222616,9.692113
26.758414,-28.722616,9.692113
26.758414,-27.222616,9.692113
26.758414,-25.722616,9.692113
26.758414,-24.222616,9.692113
26.758414,-35.794964,11.001711
26.758414,-34.294964,11.001711
26.758414,-32.794964,11.001711
26.758414,-31.294964,11.001711
26.758414,-29.794964,11.001711
26.758414,-28.294964,11.001711
26.758414,-26.794964,11.001711
26.758414,-25.294964,11.001711
26.758414,-37.021457,12.311308
26.758414,-35.521457,12.311308
26.758414,-34.021457,12.311308
26.758414,-32.521457,12.311308
26.758414,-31.021457,12.311308
26.758414,-29.521457,12.311308
26.758414,-28.021457,12.311308
26.758414,-26.521457,12.311308
26.758414,-38.287360,13.620906
26.758414,-36.787360,13.620906
26.758414,-35.287360,13.620906
26.758414,-33.787360,13.620906
26.758414,-32.287360,13.620906
26.758414,-30.787360,13.620906
26.758414,-29.287360,13.620906
26.758414,-39.430009,14.930504
26.758414,-37.930009,14.930504
26.758414,-36.430009,14.930504
26.758414,-34.930009,14.930504
26.758414,-33.430009,14.930504
26.758414,-31.930009,14.930504
26.758414,-30.430009,14.930504
26.758414,-40.238820,16.240102
26.758414,-38.738820,16.240102
26.758414,-37.238820,16.240102
26.758414,-35.738820,16.240102
26.758414,-34.238820,16.240102
26.758414,-32.738820,16.240102
26.758414,-40.455280,17.549699
26.758414,-38.955280,17.549699
26.758414,-37.455280,17.549699
26.758414,-35.955280,17.549699
26.758414,-34.455280,17.549699
26.758414,-39.772953,18.859297
26.758414,-38.272953,18.859297
26.758414,-36.772953,18.859297
23.286955,-32.672978,0.535508
23.286955,-31.172978,0.535508
23.286955,-29.672978,0.535508
23.286955,-28.172978,0.535508
23.286955,-26.672978,0.535508
23.286955,-25.172978,0.535508
23.286955,-23.672978,0.535508
23.286955,-33.331177,1.933682
23.286955,-31.831177,1.933682
23.286955,-30.331177,1.933682
23.286955,-28.831177,1.933682
23.286955,-27.331177,1.933682
23.286955,-25.831177,1.933682
23.286955,-24.331177,1.933682
23.286955,-22.831177,1.933682
23.286955,-33.533054,3.331856
23.286955,-32.033054,3.331856
23.286955,-30.533054,3.331856
23.286955,-29.033054,3.331856
23.286955,-27.533054,3.331856
23.286955,-26.033054,3.331856
23.286955,-24.533054,3.331856
23.286955,-23.033054,3.331856
23.286955,-33.543905,4.730030
23.286955,-32.043905,4.730030
23.286955,-30.543905,4.730030
23.286955,-29.043905,4.730030
23.286955,-27.543905,4.730030
23.286955,-26.043905,4.730030
23.286955,-24.543905,4.730030
23.286955,-23.043905,4.730030
23.286955,-21.543905,4.730030
23.286955,-33.566757,6.128204
23.286955,-32.066757,6.128204
23.286955,-30.566757,6.128204
23.286955,-29.066757,6.128204
23.286955,-27.566757,6.128204
23.286955,-26.066757,6.128204
23.286955,-24.566757,6.128204
23.286955,-23.066757,6.128204
23.286955,-21.566757,6.128204
23.286955,-33.742373,7.526378
23.286955,-32.242373,7.526378
23.286955,-30.742373,7.526378
23.286955,-29.242373,7.526378
23.286955,-27.742373,7.526378
23.286955,-26.242373,7.526378
23.286955,-24.742373,7.526378
23.286955,-23.242373,7.526378
23.286955,-21.742373,7.526378
23.286955,-34.149248,8.924552
23.286955,-32.649248,8.924552
23.286955,-31.149248,8.924552
23.286955,-29.649248,8.924552
23.286955,-28.149248,8.924552
23.286955,-26.649248,8.924552
23.286955,-25.149248,8.924552
23.286955,-23.649248,8.924552
23.286955,-22.149248,8.924552
23.286955,-34.803611,10.322726
23.286955,-33.303611,10.322726
23.286955,-31.803611,10.322726
23.286955,-30.303611,10.322726
23.286955,-28.803611,10.322726
23.286955,-27.303611,10.322726
23.286955,-25.803611,10.322726
23.286955,-24.303611,10.322726
23.286955,-35.659425,11.720900
23.286955,-34.159425,11.720900
23.286955,-32.659425,11.720900
23.286955,-31.159425,11.720900
23.286955,-29.659425,11.720900
23.286955,-28.159425,11.720900
23.286955,-26.659425,11.720900
23.286955,-25.159425,11.720900
23.286955,-36.608384,13.119075
23.286955,-35.108384,13.119075
23.286955,-33.608384,13.119075
23.286955,-32.108384,13.119075
23.286955,-30.608384,13.119075
23.286955,-29.108384,13.119075
23.286955,-27.608384,13.119075
23.286955,-26.108384,13.119075
23.286955,-37.479917,14.517249
23.286955,-35.979917,14.517249
23.286955,-34.479917,14.517249
23.286955,-32.979917,14.517249
23.286955,-31.479917,14.517249
23.286955,-29.979917,14.517249
23.286955,-28.479917,14.517249
23.286955,-38.041186,15.915423
23.286955,-36.541186,15.915423
23.286955,-35.041186,15.915423
23.286955,-33.541186,15.915423
23.286955,-32.041186,15.915423
23.286955,-30.541186,15.915423
23.286955,-37.997087,17.313597
23.286955,-36.497087,17.313597
23.286955,-34.997087,17.313597
23.286955,-33.497087,17.313597
23.286955,-31.997087,17.313597
23.286955,-36.990248,18.711771
23.286955,-35.490248,18.711771
23.286955,-33.990248,18.711771
23.286955,-32.490248,18.711771
23.286955,-34.601030,20.109945
23.286955,-33.101030,20.109945
22.186248,-33.219084,0.533599
22.186248,-31.719084,0.533599
22.186248,-30.219084,0.533599
22.186248,-28.719084,0.533599
22.186248,-27.219084,0.533599
22.186248,-25.719084,0.533599
22.186248,-24.219084,0.533599
22.186248,-33.783489,1.925632
22.186248,-32.283489,1.925632
22.186248,-30.783489,1.925632
22.186248,-29.283489,1.925632
22.186248,-27.783489,1.925632
22.186248,-26.283489,1.925632
22.186248,-24.783489,1.925632
22.186248,-23.283489,1.925632
22.186248,-33.877077,3.317666
22.186248,-32.377077,3.317666
22.186248,-30.877077,3.317666
22.186248,-29.377077,3.317666
22.186248,-27.877077,3.317666
22.186248,-26.377077,3.317666
22.186248,-24.877077,3.317666
22.186248,-23.377077,3.317666
22.186248,-21.877077,3.317666
22.186248,-33.763110,4.709700
22.186248,-32.263110,4.709700
22.186248,-30.763110,4.709700
22.186248,-29.263110,4.709700
22.186248,-27.763110,4.709700
22.186248,-26.263110,4.709700
22.186248,-24.763110,4.709700
22.186248,-23.263110,4.709700
22.186248,-21.763110,4.709700
22.186248,-33.643668,6.101733
22.186248,-32.143668,6.101733
22.186248,-30.643668,6.101733
22.186248,-29.143668,6.101733
22.186248,-27.643668,6.101733
22.186248,-26.143668,6.101733
22.186248,-24.643668,6.101733
22.186248,-23.143668,6.101733
22.186248,-21.643668,6.101733
22.186248,-33.659652,7.493767
22.186248,-32.159652,7.493767
22.186248,-30.659652,7.493767
22.186248,-29.159652,7.493767
22.186248,-27.659652,7.493767
22.186248,-26.159652,7.493767
22.186248,-24.659652,7.493767
22.186248,-23.159652,7.493767
22.186248,-21.659652,7.493767
22.186248,-33.890784,8.885801
22.186248,-32.390784,8.885801
22.186248,-30.890784,8.885801
22.186248,-29.390784,8.885801
22.186248,-27.890784,8.885801
22.186248,-26.390784,8.885801
22.186248,-24.890784,8.885801
22.186248,-23.390784,8.885801
22.186248,-34.355602,10.277834
22.186248,-32.855602,10.277834
22.186248,-31.355602,10.277834
22.186248,-29.855602,10.277834
22.186248,-28.355602,10.277834
22.186248,-26.855602,10.277834
22.186248,-25.355602,10.277834
22.186248,-23.855602,10.277834
22.186248,-35.011470,11.669868
22.186248,-33.511470,11.669868
22.186248,-32.011470,11.669868
22.186248,-30.511470,11.669868
22.186248,-29.011470,11.669868
22.186248,-27.511470,11.669868
22.186248,-26.011470,11.669868
22.186248,-24.511470,11.669868
22.186248,-35.754566,13.061902
22.186248,-34.254566,13.061902
22.186248,-32.754566,13.061902
22.186248,-31.254566,13.061902
22.186248,-29.754566,13.061902
22.186248,-28.254566,13.061902
22.186248,-26.754566,13.061902
22.186248,-36.419891,14.453935
22.186248,-34.919891,14.453935
22.186248,-33.419891,14.453935
22.186248,-31.919891,14.453935
22.186248,-30.419891,14.453935
22.186248,-28.919891,14.453935
22.186248,-27.419891,14.453935
22.186248,-36.781267,15.845969
22.186248,-35.281267,15.845969
22.186248,-33.781267,15.845969
22.186248,-32.281267,15.845969
22.186248,-30.781267,15.845969
22.186248,-29.281267,15.845969
22.186248,-36.551333,17.238003
22.186248,-35.051333,17.238003
22.186248,-33.551333,17.238003
22.186248,-32.051333,17.238003
22.186248,-30.551333,17.238003
22.186248,-35.381550,18.630037
22.186248,-33.881550,18.630037
22.186248,-32.381550,18.630037
22.186248,-30.881550,18.630037
22.186248,-32.862198,20.022070
22.186248,-31.362198,20.022070
21.339551,-33.635599,0.530441
21.339551,-32.135599,0.530441
21.339551,-30.635599,0.530441
21.339551,-29.135599,0.530441
21.339551,-27.635599,0.530441
21.339551,-26.135599,0.530441
21.339551,-24.635599,0.530441
21.339551,-34.113548,1.903794
21.339551,-32.613548,1.903794
21.339551,-31.113548,1.903794
21.339551,-29.613548,1.903794
21.339551,-28.113548,1.903794
21.339551,-26.613548,1.903794
21.339551,-25.113548,1.903794
21.339551,-23.613548,1.903794
21.339551,-34.114711,3.277146
21.339551,-32.614711,3.277146
21.339551,-31.114711,3.277146
21.339551,-29.614711,3.277146
21.339551,-28.114711,3.277146
21.339551,-26.614711,3.277146
21.339551,-25.114711,3.277146
21.339551,-23.614711,3.277146
21.339551,-22.114711,3.277146
21.339551,-33.893915,4.650499
21.339551,-32.393915,4.650499
21.339551,-30.893915,4.650499
21.339551,-29.393915,4.650499
21.339551,-27.893915,4.650499
21.339551,-26.393915,4.650499
21.339551,-24.893915,4.650499
21.339551,-23.393915,4.650499
21.339551,-21.893915,4.650499
21.339551,-33.648023,6.023851
21.339551,-32.148023,6.023851
21.339551,-30.648023,6.023851
21.339551,-29.148023,6.023851
21.339551,-27.648023,6.023851
21.339551,-26.148023,6.023851
21.339551,-24.648023,6.023851
21.339551,-23.148023,6.023851
21.339551,-21.648023,6.023851
21.339551,-33.515940,7.397204
21.339551,-32.015940,7.397204
21.339551,-30.515940,7.397204
21.339551,-29.015940,7.397204
21.339551,-27.515940,7.397204
21.339551,-26.015940,7.397204
21.339551,-24.515940,7.397204
21.339551,-23.015940,7.397204
21.339551,-21.515940,7.397204
21.339551,-33.578607,8.770557
21.339551,-32.078607,8.770557
21.339551,-30.578607,8.770557
21.339551,-29.078607,8.770557
21.339551,-27.578607,8.770557
21.339551,-26.078607,8.770557
21.339551,-24.578607,8.770557
21.339551,-23.078607,8.770557
21.339551,-33.859005,10.143909
21.339551,-32.359005,10.143909
21.339551,-30.859005,10.143909
21.339551,-29.359005,10.143909
21.339551,-27.859005,10.143909
21.339551,-26.359005,10.143909
21.339551,-24.859005,10.143909
21.339551,-23.359005,10.143909
21.339551,-34.322153,11.517262
21.339551,-32.822153,11.517262
21.339551,-31.322153,11.517262
21.339551,-29.822153,11.517262
21.339551,-28.322153,11.517262
21.339551,-26.822153,11.517262
21.339551,-25.322153,11.517262
21.339551,-23.822153,11.517262
21.339551,-34.875108,12.890615
21.339551,-33.375108,12.890615
21.339551,-31.875108,12.890615
21.339551,-30.375108,12.890615
21.339551,-28.875108,12.890615
21.339551,-27.375108,12.890615
21.339551,-25.875108,12.890615
21.339551,-35.366967,14.263967
21.339551,-33.866967,14.263967
21.339551,-32.366967,14.263967
21.339551,-30.866967,14.263967
21.339551,-29.366967,14.263967
21.339551,-27.866967,14.263967
21.339551,-35.588864,15.637320
21.339551,-34.088864,15.637320
21.339551,-32.588864,15.637320
21.339551,-31.088864,15.637320
21.339551,-29.588864,15.637320
21.339551,-28.088864,15.637320
21.339551,-35.273972,17.010673
21.339551,-33.773972,17.010673
21.339551,-32.273972,17.010673
21.339551,-30.773972,17.010673
21.339551,-29.273972,17.010673
21.339551,-34.097505,18.384025
21.339551,-32.597505,18.384025
21.339551,-31.097505,18.384025
21.339551,-31.676710,19.757378
21.339551,-30.176710,19.757378
20.492854,-34.038788,0.526044
20.492854,-32.538788,0.526044
20.492854,-31.038788,0.526044
20.492854,-29.538788,0.526044
20.492854,-28.038788,0.526044
20.492854,-26.538788,0.526044
20.492854,-25.038788,0.526044
20.492854,-34.419713,1.867479
20.492854,-32.919713,1.867479
20.492854,-31.419713,1.867479
20.492854,-29.919713,1.867479
20.492854,-28.419713,1.867479
20.492854,-26.919713,1.867479
20.492854,-25.419713,1.867479
20.492854,-23.919713,1.867479
20.492854,-34.323989,3.208914
20.492854,-32.823989,3.208914
20.492854,-31.323989,3.208914
20.492854,-29.823989,3.208914
20.492854,-28.323989,3.208914
20.492854,-26.823989,3.208914
20.492854,-25.323989,3.208914
20.492854,-23.823989,3.208914
20.492854,-33.991799,4.550350
20.492854,-32.491799,4.550350
20.492854,-30.991799,4.550350
20.492854,-29.491799,4.550350
20.492854,-27.991799,4.550350
20.492854,-26.491799,4.550350
20.492854,-24.991799,4.550350
20.492854,-23.491799,4.550350
20.492854,-21.991799,4.550350
20.492854,-33.610568,5.891785
20.492854,-32.110568,5.891785
20.492854,-30.610568,5.891785
20.492854,-29.110568,5.891785
20.492854,-27.610568,5.891785
20.492854,-26.110568,5.891785
20.492854,-24.610568,5.891785
20.492854,-23.110568,5.891785
20.492854,-33.314963,7.233221
20.492854,-31.814963,7.233221
20.492854,-30.314963,7.233221
20.492854,-28.814963,7.233221
20.492854,-27.314963,7.233221
20.492854,-25.814963,7.233221
20.492854,-24.314963,7.233221
20.492854,-22.814963,7.233221
20.492854,-33.186894,8.574656
20.492854,-31.686894,8.574656
20.492854,-30.186894,8.574656
20.492854,-28.686894,8.574656
20.492854,-27.186894,8.574656
20.492854,-25.686894,8.574656
20.492854,-24.186894,8.574656
20.492854,-22.686894,8.574656
20.492854,-33.255511,9.916092
20.492854,-31.755511,9.916092
20.492854,-30.255511,9.916092
20.492854,-28.755511,9.916092
20.492854,-27.255511,9.916092
20.492854,-25.755511,9.916092
20.492854,-24.255511,9.916092
20.492854,-22.755511,9.916092
20.492854,-33.497206,11.257527
20.492854,-31.997206,11.257527
20.492854,-30.497206,11.257527
20.492854,-28.997206,11.257527
20.492854,-27.497206,11.257527
20.492854,-25.997206,11.257527
20.492854,-24.497206,11.257527
20.492854,-33.835614,12.598963
20.492854,-32.335614,12.598963
20.492854,-30.835614,12.598963
20.492854,-29.335614,12.598963
20.492854,-27.835614,12.598963
20.492854,-26.335614,12.598963
20.492854,-24.835614,12.598963
20.492854,-34.141611,13.940398
20.492854,-32.641611,13.940398
20.492854,-31.141611,13.940398
20.492854,-29.641611,13.940398
20.492854,-28.141611,13.940398
20.492854,-26.641611,13.940398
20.492854,-34.233315,15.281834
20.492854,-32.733315,15.281834
20.492854,-31.233315,15.281834
20.492854,-29.733315,15.281834
20.492854,-28.233315,15.281834
20.492854,-33.876086,16.623269
20.492854,-32.376086,16.623269
20.492854,-30.876086,16.623269
20.492854,-29.376086,16.623269
20.492854,-32.782526,17.964704
20.492854,-31.282526,17.964704
20.492854,-29.782526,17.964704
20.492854,-30.612477,19.306140
18.884128,-34.731353,0.515507
18.884128,-33.231353,0.515507
18.884128,-31.731353,0.515507
18.884128,-30.231353,0.515507
18.884128,-28.731353,0.515507
18.884128,-27.231353,0.515507
18.884128,-25.731353,0.515507
18.884128,-34.908884,1.756677
18.884128,-33.408884,1.756677
18.884128,-31.908884,1.756677
18.884128,-30.408884,1.756677
18.884128,-28.908884,1.756677
18.884128,-27.408884,1.756677
18.884128,-25.908884,1.756677
18.884128,-24.408884,1.756677
18.884128,-34.632727,2.997847
18.884128,-33.132727,2.997847
18.884128,-31.632727,2.997847
18.884128,-30.132727,2.997847
18.884128,-28.632727,2.997847
18.884128,-27.132727,2.997847
18.884128,-25.632727,2.997847
18.884128,-24.132727,2.997847
18.884128,-34.099140,4.239017
18.884128,-32.599140,4.239017
18.884128,-31.099140,4.239017
18.884128,-29.599140,4.239017
18.884128,-28.099140,4.239017
18.884128,-26.599140,4.239017
18.884128,-25.099140,4.239017
18.884128,-23.599140,4.239017
18.884128,-33.465712,5.480186
18.884128,-31.965712,5.480186
18.884128,-30.465712,5.480186
18.884128,-28.965712,5.480186
18.884128,-27.465712,5.480186
18.884128,-25.965712,5.480186
18.884128,-24.465712,5.480186
18.884128,-22.965712,5.480186
18.884128,-32.851364,6.721356
18.884128,-31.351364,6.721356
18.884128,-29.851364,6.721356
18.884128,-28.351364,6.721356
18.884128,-26.851364,6.721356
18.884128,-25.351364,6.721356
18.884128,-23.851364,6.721356
18.884128,-22.351364,6.721356
18.884128,-32.336354,7.962526
18.884128,-30.836354,7.962526
18.884128,-29.336354,7.962526
18.884128,-27.836354,7.962526
18.884128,-26.336354,7.962526
18.884128,-24.836354,7.962526
18.884128,-23.336354,7.962526
18.884128,-31.962272,9.203696
18.884128,-30.462272,9.203696
18.884128,-28.962272,9.203696
18.884128,-27.462272,9.203696
18.884128,-25.962272,9.203696
18.884128,-24.462272,9.203696
18.884128,-22.962272,9.203696
18.884128,-31.732039,10.444865
18.884128,-30.232039,10.444865
18.884128,-28.732039,10.444865
18.884128,-27.232039,10.444865
18.884128,-25.732039,10.444865
18.884128,-24.232039,10.444865
18.884128,-31.609913,11.686035
18.884128,-30.109913,11.686035
18.884128,-28.609913,11.686035
18.884128,-27.109913,11.686035
18.884128,-25.609913,11.686035
18.884128,-24.109913,11.686035
18.884128,-31.521485,12.927205
18.884128,-30.021485,12.927205
18.884128,-28.521485,12.927205
18.884128,-27.021485,12.927205
18.884128,-25.521485,12.927205
18.884128,-31.353676,14.168375
18.884128,-29.853676,14.168375
18.884128,-28.353676,14.168375
18.884128,-26.853676,14.168375
18.884128,-30.954745,15.409544
18.884128,-29.454745,15.409544
18.884128,-27.954745,15.409544
18.884128,-30.134281,16.650714
18.884128,-28.634281,16.650714
18.884128,-28.663208,17.891884
15.751348,-35.532012,0.499173
15.751348,-34.032012,0.499173
15.751348,-32.532012,0.499173
15.751348,-31.032012,0.499173
15.751348,-29.532012,0.499173
15.751348,-35.346654,1.380977
15.751348,-33.846654,1.380977
15.751348,-32.346654,1.380977
15.751348,-30.846654,1.380977
15.751348,-29.346654,1.380977
15.751348,-34.866565,2.262782
15.751348,-33.366565,2.262782
15.751348,-31.866565,2.262782
15.751348,-30.366565,2.262782
15.751348,-28.866565,2.262782
15.751348,-27.366565,2.262782
15.751348,-34.169022,3.144587
15.751348,-32.669022,3.144587
15.751348,-31.169022,3.144587
15.751348,-29.669022,3.144587
15.751348,-28.169022,3.144587
15.751348,-33.321450,4.026391
15.751348,-31.821450,4.026391
15.751348,-30.321450,4.026391
15.751348,-28.821450,4.026391
15.751348,-27.321450,4.026391
15.751348,-32.381421,4.908196
15.751348,-30.881421,4.908196
15.751348,-29.381421,4.908196
15.751348,-27.881421,4.908196
15.751348,-26.381421,4.908196
15.751348,-31.396659,5.790000
15.751348,-29.896659,5.790000
15.751348,-28.396659,5.790000
15.751348,-26.896659,5.790000
15.751348,-25.396659,5.790000
15.751348,-30.405032,6.671805
15.751348,-28.905032,6.671805
15.751348,-27.405032,6.671805
15.751348,-25.905032,6.671805
15.751348,-29.434561,7.553610
15.751348,-27.934561,7.553610
15.751348,-26.434561,7.553610
15.751348,-24.934561,7.553610
15.751348,-28.503413,8.435414
15.751348,-27.003413,8.435414
15.751348,-25.503413,8.435414
15.751348,-27.619905,9.317219
15.751348,-26.119905,9.317219
15.751348,-26.782500,10.199023
15.751348,-25.282500,10.199023
15.751348,-25.979812,11.080828
15.751348,-25.551999,11.962633
15.751348,-25.894893,12.844437
15.751348,-24.394893,12.844437
50.973960,-37.323849,4.529825
50.973960,-37.468973,4.956266
50.973960,-37.581452,5.382707
50.973960,-37.664915,5.809148
50.973960,-37.722454,6.235589
50.973960,-36.222454,6.235589
50.973960,-37.756622,6.662030
50.973960,-36.256622,6.662030
50.973960,-37.769431,7.088471
50.973960,-36.269431,7.088471
50.973960,-37.762357,7.514912
50.973960,-36.262357,7.514912
50.973960,-37.736334,7.941354
50.973960,-36.236334,7.941354
50.973960,-37.691762,8.367795
50.973960,-36.191762,8.367795
50.973960,-37.628496,8.794236
50.973960,-36.128496,8.794236
50.973960,-37.545858,9.220677
50.973960,-36.045858,9.220677
50.973960,-37.442627,9.647118
50.973960,-35.942627,9.647118
50.973960,-37.317046,10.073559
50.973960,-37.166817,10.500000
49.873252,-36.986678,3.866453
49.873252,-37.182627,4.387962
49.873252,-37.327290,4.909471
49.873252,-35.827290,4.909471
49.873252,-37.428558,5.430981
49.873252,-35.928558,5.430981
49.873252,-37.493121,5.952490
49.873252,-35.993121,5.952490
49.873252,-37.526460,6.474000
49.873252,-36.026460,6.474000
49.873252,-37.532854,6.995509
49.873252,-36.032854,6.995509
49.873252,-37.515373,7.517019
49.873252,-36.015373,7.517019
49.873252,-37.475885,8.038528
49.873252,-35.975885,8.038528
49.873252,-34.475885,8.038528
49.873252,-37.415053,8.560037
49.873252,-35.915053,8.560037
49.873252,-37.332332,9.081547
49.873252,-35.832332,9.081547
49.873252,-37.225974,9.603056
49.873252,-35.725974,9.603056
49.873252,-37.093024,10.124566
49.873252,-35.593024,10.124566
49.873252,-36.929325,10.646075
49.873252,-35.429325,10.646075
49.873252,-36.729512,11.167585
48.349197,-36.370822,3.083693
48.349197,-36.626035,3.684858
48.349197,-35.126035,3.684858
48.349197,-36.806684,4.286022
48.349197,-35.306684,4.286022
48.349197,-36.927314,4.887187
48.349197,-35.427314,4.887187
48.349197,-37.000343,5.488352
48.349197,-35.500343,5.488352
48.349197,-34.000343,5.488352
48.349197,-37.036059,6.089517
48.349197,-35.536059,6.089517
48.349197,-34.036059,6.089517
48.349197,-37.042622,6.690682
48.349197,-35.542622,6.690682
48.349197,-34.042622,6.690682
48.349197,-37.026066,7.291846
48.349197,-35.526066,7.291846
48.349197,-34.026066,7.291846
48.349197,-36.990294,7.893011
48.349197,-35.490294,7.893011
48.349197,-33.990294,7.893011
48.349197,-36.937084,8.494176
48.349197,-35.437084,8.494176
48.349197,-33.937084,8.494176
48.349197,-36.866083,9.095341
48.349197,-35.366083,9.095341
48.349197,-33.866083,9.095341
48.349197,-36.774813,9.696506
48.349197,-35.274813,9.696506
48.349197,-33.774813,9.696506
48.349197,-36.658664,10.297670
48.349197,-35.158664,10.297670
48.349197,-36.510903,10.898835
48.349197,-35.010903,10.898835
48.349197,-36.322664,11.500000
45.978445,-35.169366,2.139809
45.978445,-33.669366,2.139809
45.978445,-35.495365,2.788799
45.978445,-33.995365,2.788799
45.978445,-35.721036,3.437789
45.978445,-34.221036,3.437789
45.978445,-32.721036,3.437789
45.978445,-35.868773,4.086779
45.978445,-34.368773,4.086779
45.978445,-32.868773,4.086779
45.978445,-35.958077,4.735769
45.978445,-34.458077,4.735769
45.978445,-32.958077,4.735769
45.978445,-36.005562,5.384758
45.978445,-34.505562,5.384758
45.978445,-33.005562,5.384758
45.978445,-36.024948,6.033748
45.978445,-34.524948,6.033748
45.978445,-33.024948,6.033748
45.978445,-36.027067,6.682738
45.978445,-34.527067,6.682738
45.978445,-33.027067,6.682738
45.978445,-31.527067,6.682738
45.978445,-36.019858,7.331728
45.978445,-34.519858,7.331728
45.978445,-33.019858,7.331728
45.978445,-31.519858,7.331728
45.978445,-36.008373,7.980718
45.978445,-34.508373,7.980718
45.978445,-33.008373,7.980718
45.978445,-31.508373,7.980718
45.978445,-35.994771,8.629708
45.978445,-34.494771,8.629708
45.978445,-32.994771,8.629708
45.978445,-35.978321,9.278698
45.978445,-34.478321,9.278698
45.978445,-32.978321,9.278698
45.978445,-35.955402,9.927688
45.978445,-34.455402,9.927688
45.978445,-32.955402,9.927688
45.978445,-35.919503,10.576678
45.978445,-34.419503,10.576678
45.978445,-32.919503,10.576678
45.978445,-35.861222,11.225668
45.978445,-34.361222,11.225668
42.845665,-33.386349,1.307984
42.845665,-31.886349,1.307984
42.845665,-33.779684,1.966152
42.845665,-32.279684,1.966152
42.845665,-30.779684,1.966152
42.845665,-34.054706,2.624321
42.845665,-32.554706,2.624321
42.845665,-31.054706,2.624321
42.845665,-34.238860,3.282490
42.845665,-32.738860,3.282490
42.845665,-31.238860,3.282490
42.845665,-34.356532,3.940659
42.845665,-32.856532,3.940659
42.845665,-31.356532,3.940659
42.845665,-34.429051,4.598827
42.845665,-32.929051,4.598827
42.845665,-31.429051,4.598827
42.845665,-29.929051,4.598827
42.845665,-34.474691,5.256996
42.845665,-32.974691,5.256996
42.845665,-31.474691,5.256996
42.845665,-29.974691,5.256996
42.845665,-34.508665,5.915165
42.845665,-33.008665,5.915165
42.845665,-31.508665,5.915165
42.845665,-30.008665,5.915165
42.845665,-34.543130,6.573333
42.845665,-33.043130,6.573333
42.845665,-31.543130,6.573333
42.845665,-30.043130,6.573333
42.845665,-34.587186,7.231502
42.845665,-33.087186,7.231502
42.845665,-31.587186,7.231502
42.845665,-30.087186,7.231502
42.845665,-34.646875,7.889671
42.845665,-33.146875,7.889671
42.845665,-31.646875,7.889671
42.845665,-30.146875,7.889671
42.845665,-34.725183,8.547840
42.845665,-33.225183,8.547840
42.845665,-31.725183,8.547840
42.845665,-30.225183,8.547840
42.845665,-34.822036,9.206008
42.845665,-33.322036,9.206008
42.845665,-31.822036,9.206008
42.845665,-30.322036,9.206008
42.845665,-34.934303,9.864177
42.845665,-33.434303,9.864177
42.845665,-31.934303,9.864177
42.845665,-35.055799,10.522346
42.845665,-33.555799,10.522346
42.845665,-32.055799,10.522346
39.120196,-31.452844,0.769750
39.120196,-29.952844,0.769750
39.120196,-28.452844,0.769750
39.120196,-31.925475,1.467947
39.120196,-30.425475,1.467947
39.120196,-28.925475,1.467947
39.120196,-32.257372,2.166144
39.120196,-30.757372,2.166144
39.120196,-29.257372,2.166144
39.120196,-32.484357,2.864341
39.120196,-30.984357,2.864341
39.120196,-29.484357,2.864341
39.120196,-27.984357,2.864341
39.120196,-32.638381,3.562538
39.120196,-31.138381,3.562538
39.120196,-29.638381,3.562538
39.120196,-28.138381,3.562538
39.120196,-32.747523,4.260735
39.120196,-31.247523,4.260735
39.120196,-29.747523,4.260735
39.120196,-28.247523,4.260735
39.120196,-32.835990,4.958932
39.120196,-31.335990,4.958932
39.120196,-29.835990,4.958932
39.120196,-28.335990,4.958932
39.120196,-32.924117,5.657129
39.120196,-31.424117,5.657129
39.120196,-29.924117,5.657129
39.120196,-28.424117,5.657129
39.120196,-33.028368,6.355326
39.120196,-31.528368,6.355326
39.120196,-30.028368,6.355326
39.120196,-28.528368,6.355326
39.120196,-33.161334,7.053523
39.120196,-31.661334,7.053523
39.120196,-30.161334,7.053523
39.120196,-28.661334,7.053523
39.120196,-33.331735,7.751720
39.120196,-31.831735,7.751720
39.120196,-30.331735,7.751720
39.120196,-28.831735,7.751720
39.120196,-33.544417,8.449917
39.120196,-32.044417,8.449917
39.120196,-30.544417,8.449917
39.120196,-29.044417,8.449917
39.120196,-33.800358,9.148114
39.120196,-32.300358,9.148114
39.120196,-30.800358,9.148114
39.120196,-29.300358,9.148114
39.120196,-34.096661,9.846311
39.120196,-32.596661,9.846311
39.120196,-31.096661,9.846311
39.120196,-29.596661,9.846311
39.120196,-34.426558,10.544508
39.120196,-32.926558,10.544508
39.120196,-31.426558,10.544508
39.120196,-29.926558,10.544508
36.326095,-30.429511,0.582736
36.326095,-28.929511,0.582736
36.326095,-27.429511,0.582736
36.326095,-30.985041,1.368868
36.326095,-29.485041,1.368868
36.326095,-27.985041,1.368868
36.326095,-31.366807,2.154999
36.326095,-29.866807,2.154999
36.326095,-28.366807,2.154999
36.326095,-26.866807,2.154999
36.326095,-31.626817,2.941131
36.326095,-30.126817,2.941131
36.326095,-28.626817,2.941131
36.326095,-27.126817,2.941131
36.326095,-31.810857,3.727262
36.326095,-30.310857,3.727262
36.326095,-28.810857,3.727262
36.326095,-27.310857,3.727262
36.326095,-31.958487,4.513394
36.326095,-30.458487,4.513394
36.326095,-28.958487,4.513394
36.326095,-27.458487,4.513394
36.326095,-25.958487,4.513394
36.326095,-32.103047,5.299525
36.326095,-30.603047,5.299525
36.326095,-29.103047,5.299525
36.326095,-27.603047,5.299525
36.326095,-26.103047,5.299525
36.326095,-32.271654,6.085657
36.326095,-30.771654,6.085657
36.326095,-29.271654,6.085657
36.326095,-27.771654,6.085657
36.326095,-26.271654,6.085657
36.326095,-32.485200,6.871788
36.326095,-30.985200,6.871788
36.326095,-29.485200,6.871788
36.326095,-27.985200,6.871788
36.326095,-26.485200,6.871788
36.326095,-32.758357,7.657920
36.326095,-31.258357,7.657920
36.326095,-29.758357,7.657920
36.326095,-28.258357,7.657920
36.326095,-26.758357,7.657920
36.326095,-33.099571,8.444051
36.326095,-31.599571,8.444051
36.326095,-30.099571,8.444051
36.326095,-28.599571,8.444051
36.326095,-27.099571,8.444051
36.326095,-33.511067,9.230183
36.326095,-32.011067,9.230183
36.326095,-30.511067,9.230183
36.326095,-29.011067,9.230183
36.326095,-27.511067,9.230183
36.326095,-33.988848,10.016315
36.326095,-32.488848,10.016315
36.326095,-30.988848,10.016315
36.326095,-29.488848,10.016315
36.326095,-27.988848,10.016315
36.326095,-34.522691,10.802446
36.326095,-33.022691,10.802446
36.326095,-31.522691,10.802446
36.326095,-30.022691,10.802446
36.326095,-35.096154,11.588578
36.326095,-33.596154,11.588578
36.326095,-32.096154,11.588578
36.326095,-30.596154,11.588578
33.786003,-29.955581,0.513382
33.786003,-28.455581,0.513382
33.786003,-26.955581,0.513382
33.786003,-25.455581,0.513382
33.786003,-30.604173,1.422934
33.786003,-29.104173,1.422934
33.786003,-27.604173,1.422934
33.786003,-26.104173,1.422934
33.786003,-31.033603,2.332486
33.786003,-29.533603,2.332486
33.786003,-28.033603,2.332486
33.786003,-26.533603,2.332486
33.786003,-25.033603,2.332486
33.786003,-31.323617,3.242038
33.786003,-29.823617,3.242038
33.786003,-28.323617,3.242038
33.786003,-26.823617,3.242038
33.786003,-25.323617,3.242038
33.786003,-31.542809,4.151589
33.786003,-30.042809,4.151589
33.786003,-28.542809,4.151589
33.786003,-27.042809,4.151589
33.786003,-25.542809,4.151589
33.786003,-31.748625,5.061141
33.786003,-30.248625,5.061141
33.786003,-28.748625,5.061141
33.786003,-27.248625,5.061141
33.786003,-25.748625,5.061141
33.786003,-31.987356,5.970693
33.786003,-30.487356,5.970693
33.786003,-28.987356,5.970693
33.786003,-27.487356,5.970693
33.786003,-25.987356,5.970693
33.786003,-32.294145,6.880245
33.786003,-30.794145,6.880245
33.786003,-29.294145,6.880245
33.786003,-27.794145,6.880245
33.786003,-26.294145,6.880245
33.786003,-24.794145,6.880245
33.786003,-32.692981,7.789797
33.786003,-31.192981,7.789797
33.786003,-29.692981,7.789797
33.786003,-28.192981,7.789797
33.786003,-26.692981,7.789797
33.786003,-25.192981,7.789797
33.786003,-33.196704,8.699348
33.786003,-31.696704,8.699348
33.786003,-30.196704,8.699348
33.786003,-28.696704,8.699348
33.786003,-27.196704,8.699348
33.786003,-25.696704,8.699348
33.786003,-33.807001,9.608900
33.786003,-32.307001,9.608900
33.786003,-30.807001,9.608900
33.786003,-29.307001,9.608900
33.786003,-27.807001,9.608900
33.786003,-34.514411,10.518452
33.786003,-33.014411,10.518452
33.786003,-31.514411,10.518452
33.786003,-30.014411,10.518452
33.786003,-28.514411,10.518452
33.786003,-35.298317,11.428004
33.786003,-33.798317,11.428004
33.786003,-32.298317,11.428004
33.786003,-30.798317,11.428004
33.786003,-29.298317,11.428004
33.786003,-36.126956,12.337556
33.786003,-34.626956,12.337556
33.786003,-33.126956,12.337556
33.786003,-31.626956,12.337556
33.786003,-30.126956,12.337556
33.786003,-36.957409,13.247108
33.786003,-35.457409,13.247108
33.786003,-33.957409,13.247108
33.786003,-32.457409,13.247108
31.499920,-29.944309,0.499594
31.499920,-28.444309,0.499594
31.499920,-26.944309,0.499594
31.499920,-25.444309,0.499594
31.499920,-30.677327,1.543296
31.499920,-29.177327,1.543296
31.499920,-27.677327,1.543296
31.499920,-26.177327,1.543296
31.499920,-24.677327,1.543296
31.499920,-31.140502,2.586999
31.499920,-29.640502,2.586999
31.499920,-28.140502,2.586999
31.499920,-26.640502,2.586999
31.499920,-25.140502,2.586999
31.499920,-31.451690,3.630702
31.499920,-29.951690,3.630702
31.499920,-28.451690,3.630702
31.499920,-26.951690,3.630702
31.499920,-25.451690,3.630702
31.499920,-23.951690,3.630702
31.499920,-31.709415,4.674405
31.499920,-30.209415,4.674405
31.499920,-28.709415,4.674405
31.499920,-27.209415,4.674405
31.499920,-25.709415,4.674405
31.499920,-24.209415,4.674405
31.499920,-31.992867,5.718107
31.499920,-30.492867,5.718107
31.499920,-28.992867,5.718107
31.499920,-27.492867,5.718107
31.499920,-25.992867,5.718107
31.499920,-24.492867,5.718107
31.499920,-32.361901,6.761810
31.499920,-30.861901,6.761810
31.499920,-29.361901,6.761810
31.499920,-27.861901,6.761810
31.499920,-26.361901,6.761810
31.499920,-24.861901,6.761810
31.499920,-32.857040,7.805513
31.499920,-31.357040,7.805513
31.499920,-29.857040,7.805513
31.499920,-28.357040,7.805513
31.499920,-26.857040,7.805513
31.499920,-25.357040,7.805513
31.499920,-33.499472,8.849216
31.499920,-31.999472,8.849216
31.499920,-30.499472,8.849216
31.499920,-28.999472,8.849216
31.499920,-27.499472,8.849216
31.499920,-25.999472,8.849216
31.499920,-34.291050,9.892919
31.499920,-32.791050,9.892919
31.499920,-31.291050,9.892919
31.499920,-29.791050,9.892919
31.499920,-28.291050,9.892919
31.499920,-26.791050,9.892919
31.499920,-35.214296,10.936621
31.499920,-33.714296,10.936621
31.499920,-32.214296,10.936621
31.499920,-30.714296,10.936621
31.499920,-29.214296,10.936621
31.499920,-27.714296,10.936621
31.499920,-36.232396,11.980324
31.499920,-34.732396,11.980324
31.499920,-33.232396,11.980324
31.499920,-31.732396,11.980324
31.499920,-30.232396,11.980324
31.499920,-28.732396,11.980324
31.499920,-37.289203,13.024027
31.499920,-35.789203,13.024027
31.499920,-34.289203,13.024027
31.499920,-32.789203,13.024027
31.499920,-31.289203,13.024027
31.499920,-38.309235,14.067730
31.499920,-36.809235,14.067730
31.499920,-35.309235,14.067730
31.499920,-33.809235,14.067730
31.499920,-32.309235,14.067730
31.499920,-39.197678,15.111433
31.499920,-37.697678,15.111433
31.499920,-36.197678,15.111433
31.499920,-34.697678,15.111433
30.060534,-30.138459,0.503811
30.060534,-28.638459,0.503811
30.060534,-27.138459,0.503811
30.060534,-25.638459,0.503811
30.060534,-24.138459,0.503811
30.060534,-30.915170,1.635275
30.060534,-29.415170,1.635275
30.060534,-27.915170,1.635275
30.060534,-26.415170,1.635275
30.060534,-24.915170,1.635275
30.060534,-31.387446,2.766738
30.060534,-29.887446,2.766738
30.060534,-28.387446,2.766738
30.060534,-26.887446,2.766738
30.060534,-25.387446,2.766738
30.060534,-23.887446,2.766738
30.060534,-31.702911,3.898202
30.060534,-30.202911,3.898202
30.060534,-28.702911,3.898202
30.060534,-27.202911,3.898202
30.060534,-25.702911,3.898202
30.060534,-24.202911,3.898202
30.060534,-31.982484,5.029665
30.060534,-30.482484,5.029665
30.060534,-28.982484,5.029665
30.060534,-27.482484,5.029665
30.060534,-25.982484,5.029665
30.060534,-24.482484,5.029665
30.060534,-22.982484,5.029665
30.060534,-32.320380,6.161129
30.060534,-30.820380,6.161129
30.060534,-29.320380,6.161129
30.060534,-27.820380,6.161129
30.060534,-26.320380,6.161129
30.060534,-24.820380,6.161129
30.060534,-23.320380,6.161129
30.060534,-32.784112,7.292592
30.060534,-31.284112,7.292592
30.060534,-29.784112,7.292592
30.060534,-28.284112,7.292592
30.060534,-26.784112,7.292592
30.060534,-25.284112,7.292592
30.060534,-23.784112,7.292592
30.060534,-33.414486,8.424056
30.060534,-31.914486,8.424056
30.060534,-30.414486,8.424056
30.060534,-28.914486,8.424056
30.060534,-27.414486,8.424056
30.060534,-25.914486,8.424056
30.060534,-24.414486,8.424056
30.060534,-34.225608,9.555519
30.060534,-32.725608,9.555519
30.060534,-31.225608,9.555519
30.060534,-29.725608,9.555519
30.060534,-28.225608,9.555519
30.060534,-26.725608,9.555519
30.060534,-25.225608,9.555519
30.060534,-35.204877,10.686982
30.060534,-33.704877,10.686982
30.060534,-32.204877,10.686982
30.060534,-30.704877,10.686982
30.060534,-29.204877,10.686982
30.060534,-27.704877,10.686982
30.060534,-26.204877,10.686982
30.060534,-36.312990,11.818446
30.060534,-34.812990,11.818446
30.060534,-33.312990,11.818446
30.060534,-31.812990,11.818446
30.060534,-30.312990,11.818446
30.060534,-28.812990,11.818446
30.060534,-27.312990,11.818446
30.060534,-37.483941,12.949909
30.060534,-35.983941,12.949909
30.060534,-34.483941,12.949909
30.060534,-32.983941,12.949909
30.060534,-31.483941,12.949909
30.060534,-29.983941,12.949909
30.060534,-38.625017,14.081373
30.060534,-37.125017,14.081373
30.060534,-35.625017,14.081373
30.060534,-34.125017,14.081373
30.060534,-32.625017,14.081373
30.060534,-31.125017,14.081373
30.060534,-39.616804,15.212836
30.060534,-38.116804,15.212836
30.060534,-36.616804,15.212836
30.060534,-35.116804,15.212836
30.060534,-33.616804,15.212836
30.060534,-40.313183,16.344300
30.060534,-38.813183,16.344300
30.060534,-37.313183,16.344300
30.060534,-35.813183,16.344300
29.721855,-30.205718,0.505607
29.721855,-28.705718,0.505607
29.721855,-27.205718,0.505607
29.721855,-25.705718,0.505607
29.721855,-24.205718,0.505607
