25.818675,-26.104228,7.292592
25.818675,-24.604228,7.292592
25.818675,-34.234602,8.424056
25.818675,-32.734602,8.424056
25.818675,-31.234602,8.424056
25.818675,-29.734602,8.424056
25.818675,-28.234602,8.424056
25.818675,-26.734602,8.424056
25.818675,-25.234602,8.424056
25.818675,-35.045724,9.555519
25.818675,-33.545724,9.555519
25.818675,-32.045724,9.555519
25.818675,-30.545724,9.555519
25.818675,-29.045724,9.555519
25.818675,-27.545724,9.555519
25.818675,-26.045724,9.555519
25.818675,-36.024993,10.686982
25.818675,-34.524993,10.686982
25.818675,-33.024993,10.686982
25.818675,-31.524993,10.686982
25.818675,-30.024993,10.686982
25.818675,-28.524993,10.686982
25.818675,-27.024993,10.686982
25.818675,-37.133107,11.818446
25.818675,-35.633107,11.818446
25.818675,-34.133107,11.818446
25.818675,-32.633107,11.818446
25.818675,-31.133107,11.818446
25.818675,-29.633107,11.818446
25.818675,-28.133107,11.818446
25.818675,-38.304057,12.949909
25.818675,-36.804057,12.949909
25.818675,-35.304057,12.949909
25.818675,-33.804057,12.949909
25.818675,-32.304057,12.949909
25.818675,-30.804057,12.949909
25.818675,-39.445133,14.081373
25.818675,-37.945133,14.081373
25.818675,-36.445133,14.081373
25.818675,-34.945133,14.081373
25.818675,-33.445133,14.081373
25.818675,-31.945133,14.081373
25.818675,-40.436920,15.212836
25.818675,-38.936920,15.212836
25.818675,-37.436920,15.212836
25.818675,-35.936920,15.212836
25.818675,-34.436920,15.212836
25.818675,-41.133299,16.344300
25.818675,-39.633299,16.344300
25.818675,-38.133299,16.344300
25.818675,-36.633299,16.344300
25.508135,-31.025834,0.505607
25.508135,-29.525834,0.505607
25.508135,-28.025834,0.505607
25.508135,-26.525834,0.505607
25.508135,-25.025834,0.505607
25.508135,-31.810855,1.657395
25.508135,-30.310855,1.657395
25.508135,-28.810855,1.657395
25.508135,-27.310855,1.657395
25.508135,-25.810855,1.657395
25.508135,-24.310855,1.657395
25.508135,-32.283166,2.809183
25.508135,-30.783166,2.809183
25.508135,-29.283166,2.809183
25.508135,-27.783166,2.809183
25.508135,-26.283166,2.809183
25.508135,-24.783166,2.809183
25.508135,-32.597852,3.960971
25.508135,-31.097852,3.960971
25.508135,-29.597852,3.960971
25.508135,-28.097852,3.960971
25.508135,-26.597852,3.960971
25.508135,-25.097852,3.960971
25.508135,-23.597852,3.960971
25.508135,-32.881322,5.112759
25.508135,-31.381322,5.112759
25.508135,-29.881322,5.112759
25.508135,-28.381322,5.112759
25.508135,-26.881322,5.112759
25.508135,-25.381322,5.112759
25.508135,-23.881322,5.112759
25.508135,-33.231312,6.264547
25.508135,-31.731312,6.264547
25.508135,-30.231312,6.264547
25.508135,-28.731312,6.264547
25.508135,-27.231312,6.264547
25.508135,-25.731312,6.264547
25.508135,-24.231312,6.264547
25.508135,-33.716883,7.416334
25.508135,-32.216883,7.416334
25.508135,-30.716883,7.416334
25.508135,-29.216883,7.416334
25.508135,-27.716883,7.416334
25.508135,-26.216883,7.416334
25.508135,-24.716883,7.416334
25.508135,-34.378420,8.568122
25.508135,-32.878420,8.568122
25.508135,-31.378420,8.568122
25.508135,-29.878420,8.568122
25.508135,-28.378420,8.568122
25.508135,-26.878420,8.568122
25.508135,-25.378420,8.568122
25.508135,-35.227635,9.719910
25.508135,-33.727635,9.719910
25.508135,-32.227635,9.719910
25.508135,-30.727635,9.719910
25.508135,-29.227635,9.719910
25.508135,-27.727635,9.719910
25.508135,-26.227635,9.719910
25.508135,-36.247564,10.871698
25.508135,-34.747564,10.871698
25.508135,-33.247564,10.871698
25.508135,-31.747564,10.871698
25.508135,-30.247564,10.871698
25.508135,-28.747564,10.871698
25.508135,-27.247564,10.871698
25.508135,-37.392568,12.023486
25.508135,-35.892568,12.023486
25.508135,-34.392568,12.023486
25.508135,-32.892568,12.023486
25.508135,-31.392568,12.023486
25.508135,-29.892568,12.023486
25.508135,-28.392568,12.023486
25.508135,-38.588333,13.175274
25.508135,-37.088333,13.175274
25.508135,-35.588333,13.175274
25.508135,-34.088333,13.175274
25.508135,-32.588333,13.175274
25.508135,-31.088333,13.175274
25.508135,-39.731872,14.327061
25.508135,-38.231872,14.327061
25.508135,-36.731872,14.327061
25.508135,-35.231872,14.327061
25.508135,-33.731872,14.327061
25.508135,-32.231872,14.327061
25.508135,-40.691521,15.478849
25.508135,-39.191521,15.478849
25.508135,-37.691521,15.478849
25.508135,-36.191521,15.478849
25.508135,-34.691521,15.478849
25.508135,-41.306941,16.630637
25.508135,-39.806941,16.630637
25.508135,-38.306941,16.630637
25.508135,-36.806941,16.630637
25.352865,-31.062432,0.506582
25.352865,-29.562432,0.506582
25.352865,-28.062432,0.506582
25.352865,-26.562432,0.506582
25.352865,-25.062432,0.506582
25.352865,-31.851259,1.668434
25.352865,-30.351259,1.668434
25.352865,-28.851259,1.668434
25.352865,-27.351259,1.668434
25.352865,-25.851259,1.668434
25.352865,-24.351259,1.668434
25.352865,-32.323229,2.830286
25.352865,-30.823229,2.830286
25.352865,-29.323229,2.830286
25.352865,-27.823229,2.830286
25.352865,-26.323229,2.830286
25.352865,-24.823229,2.830286
25.352865,-32.637201,3.992138
25.352865,-31.137201,3.992138
25.352865,-29.637201,3.992138
25.352865,-28.137201,3.992138
25.352865,-26.637201,3.992138
25.352865,-25.137201,3.992138
25.352865,-23.637201,3.992138
25.352865,-32.922347,5.153990
25.352865,-31.422347,5.153990
25.352865,-29.922347,5.153990
25.352865,-28.422347,5.153990
25.352865,-26.922347,5.153990
25.352865,-25.422347,5.153990
25.352865,-23.922347,5.153990
25.352865,-33.278147,6.315842
25.352865,-31.778147,6.315842
25.352865,-30.278147,6.315842
25.352865,-28.778147,6.315842
25.352865,-27.278147,6.315842
25.352865,-25.778147,6.315842
25.352865,-24.278147,6.315842
25.352865,-33.774392,7.477694
25.352865,-32.274392,7.477694
25.352865,-30.774392,7.477694
25.352865,-29.274392,7.477694
25.352865,-27.774392,7.477694
25.352865,-26.274392,7.477694
25.352865,-24.774392,7.477694
25.352865,-34.451181,8.639546
25.352865,-32.951181,8.639546
25.352865,-31.451181,8.639546
25.352865,-29.951181,8.639546
25.352865,-28.451181,8.639546
25.352865,-26.951181,8.639546
25.352865,-25.451181,8.639546
25.352865,-35.318924,9.801398
25.352865,-33.818924,9.801398
25.352865,-32.318924,9.801398
25.352865,-30.818924,9.801398
25.352865,-29.318924,9.801398
25.352865,-27.818924,9.801398
25.352865,-26.318924,9.801398
25.352865,-36.358339,10.963250
25.352865,-34.858339,10.963250
25.352865,-33.358339,10.963250
25.352865,-31.858339,10.963250
25.352865,-30.358339,10.963250
25.352865,-28.858339,10.963250
25.352865,-27.358339,10.963250
25.352865,-37.520458,12.125102
25.352865,-36.020458,12.125102
25.352865,-34.520458,12.125102
25.352865,-33.020458,12.125102
25.352865,-31.520458,12.125102
25.352865,-30.020458,12.125102
25.352865,-28.520458,12.125102
25.352865,-38.726617,13.286954
25.352865,-37.226617,13.286954
25.352865,-35.726617,13.286954
25.352865,-34.226617,13.286954
25.352865,-32.726617,13.286954
25.352865,-31.226617,13.286954
25.352865,-39.868466,14.448806
25.352865,-38.368466,14.448806
25.352865,-36.868466,14.448806
25.352865,-35.368466,14.448806
25.352865,-33.868466,14.448806
25.352865,-32.368466,14.448806
25.352865,-40.807963,15.610658
25.352865,-39.307963,15.610658
25.352865,-37.807963,15.610658
25.352865,-36.307963,15.610658
25.352865,-34.807963,15.610658
25.352865,-41.377376,16.772510
25.352865,-39.877376,16.772510
25.352865,-38.377376,16.772510
25.352865,-36.877376,16.772510
24.265974,-31.371702,0.514291
24.265974,-29.871702,0.514291
24.265974,-28.371702,0.514291
24.265974,-26.871702,0.514291
24.265974,-25.371702,0.514291
24.265974,-32.179490,1.743892
24.265974,-30.679490,1.743892
24.265974,-29.179490,1.743892
24.265974,-27.679490,1.743892
24.265974,-26.179490,1.743892
24.265974,-24.679490,1.743892
24.265974,-32.641377,2.973494
24.265974,-31.141377,2.973494
24.265974,-29.641377,2.973494
24.265974,-28.141377,2.973494
24.265974,-26.641377,2.973494
24.265974,-25.141377,2.973494
24.265974,-23.641377,2.973494
24.265974,-32.943063,4.203095
24.265974,-31.443063,4.203095
24.265974,-29.943063,4.203095
24.265974,-28.443063,4.203095
24.265974,-26.943063,4.203095
24.265974,-25.443063,4.203095
24.265974,-23.943063,4.203095
24.265974,-33.233005,5.432697
24.265974,-31.733005,5.432697
24.265974,-30.233005,5.432697
24.265974,-28.733005,5.432697
24.265974,-27.233005,5.432697
24.265974,-25.733005,5.432697
24.265974,-24.233005,5.432697
24.265974,-33.622414,6.662298
24.265974,-32.122414,6.662298
24.265974,-30.622414,6.662298
24.265974,-29.122414,6.662298
24.265974,-27.622414,6.662298
24.265974,-26.122414,6.662298
24.265974,-24.622414,6.662298
24.265974,-34.185258,7.891899
24.265974,-32.685258,7.891899
24.265974,-31.185258,7.891899
24.265974,-29.685258,7.891899
24.265974,-28.185258,7.891899
24.265974,-26.685258,7.891899
24.265974,-25.185258,7.891899
24.265974,-23.685258,7.891899
24.265974,-34.958257,9.121501
24.265974,-33.458257,9.121501
24.265974,-31.958257,9.121501
24.265974,-30.458257,9.121501
24.265974,-28.958257,9.121501
24.265974,-27.458257,9.121501
24.265974,-25.958257,9.121501
24.265974,-24.458257,9.121501
24.265974,-35.940888,10.351102
24.265974,-34.440888,10.351102
24.265974,-32.940888,10.351102
24.265974,-31.440888,10.351102
24.265974,-29.940888,10.351102
24.265974,-28.440888,10.351102
24.265974,-26.940888,10.351102
24.265974,-37.095382,11.580704
24.265974,-35.595382,11.580704
24.265974,-34.095382,11.580704
24.265974,-32.595382,11.580704
24.265974,-31.095382,11.580704
24.265974,-29.595382,11.580704
24.265974,-28.095382,11.580704
24.265974,-38.346726,12.810305
24.265974,-36.846726,12.810305
24.265974,-35.346726,12.810305
24.265974,-33.846726,12.810305
24.265974,-32.346726,12.810305
24.265974,-30.846726,12.810305
24.265974,-29.346726,12.810305
24.265974,-39.582661,14.039906
24.265974,-38.082661,14.039906
24.265974,-36.582661,14.039906
24.265974,-35.082661,14.039906
24.265974,-33.582661,14.039906
24.265974,-32.082661,14.039906
24.265974,-40.653684,15.269508
24.265974,-39.153684,15.269508
24.265974,-37.653684,15.269508
24.265974,-36.153684,15.269508
24.265974,-34.653684,15.269508
24.265974,-33.153684,15.269508
24.265974,-41.373045,16.499109
24.265974,-39.873045,16.499109
24.265974,-38.373045,16.499109
24.265974,-36.873045,16.499109
24.265974,-35.373045,16.499109
24.265974,-41.516752,17.728710
24.265974,-40.016752,17.728710
24.265974,-38.516752,17.728710
24.265974,-37.016752,17.728710
22.868543,-31.893352,0.524416
22.868543,-30.393352,0.524416
22.868543,-28.893352,0.524416
22.868543,-27.393352,0.524416
22.868543,-25.893352,0.524416
22.868543,-24.393352,0.524416
22.868543,-32.700761,1.830263
22.868543,-31.200761,1.830263
22.868543,-29.700761,1.830263
22.868543,-28.200761,1.830263
22.868543,-26.700761,1.830263
22.868543,-25.200761,1.830263
22.868543,-23.700761,1.830263
22.868543,-33.125564,3.136111
22.868543,-31.625564,3.136111
22.868543,-30.125564,3.136111
22.868543,-28.625564,3.136111
22.868543,-27.125564,3.136111
22.868543,-25.625564,3.136111
22.868543,-24.125564,3.136111
22.868543,-33.386771,4.441959
22.868543,-31.886771,4.441959
22.868543,-30.386771,4.441959
22.868543,-28.886771,4.441959
22.868543,-27.386771,4.441959
22.868543,-25.886771,4.441959
22.868543,-24.386771,4.441959
22.868543,-22.886771,4.441959
22.868543,-33.656014,5.747807
22.868543,-32.156014,5.747807
22.868543,-30.656014,5.747807
22.868543,-29.156014,5.747807
22.868543,-27.656014,5.747807
22.868543,-26.156014,5.747807
22.868543,-24.656014,5.747807
22.868543,-23.156014,5.747807
22.868543,-34.057545,7.053654
22.868543,-32.557545,7.053654
22.868543,-31.057545,7.053654
22.868543,-29.557545,7.053654
22.868543,-28.057545,7.053654
22.868543,-26.557545,7.053654
22.868543,-25.057545,7.053654
22.868543,-23.557545,7.053654
22.868543,-34.668240,8.359502
22.868543,-33.168240,8.359502
22.868543,-31.668240,8.359502
22.868543,-30.168240,8.359502
22.868543,-28.668240,8.359502
22.868543,-27.168240,8.359502
22.868543,-25.668240,8.359502
22.868543,-24.168240,8.359502
22.868543,-35.517594,9.665350
22.868543,-34.017594,9.665350
22.868543,-32.517594,9.665350
22.868543,-31.017594,9.665350
22.868543,-29.517594,9.665350
22.868543,-28.017594,9.665350
22.868543,-26.517594,9.665350
22.868543,-25.017594,9.665350
22.868543,-36.587726,10.971197
22.868543,-35.087726,10.971197
22.868543,-33.587726,10.971197
22.868543,-32.087726,10.971197
22.868543,-30.587726,10.971197
22.868543,-29.087726,10.971197
22.868543,-27.587726,10.971197
22.868543,-26.087726,10.971197
22.868543,-37.813374,12.277045
22.868543,-36.313374,12.277045
22.868543,-34.813374,12.277045
22.868543,-33.313374,12.277045
22.868543,-31.813374,12.277045
22.868543,-30.313374,12.277045
22.868543,-28.813374,12.277045
22.868543,-27.313374,12.277045
22.868543,-39.081899,13.582893
22.868543,-37.581899,13.582893
22.868543,-36.081899,13.582893
22.868543,-34.581899,13.582893
22.868543,-33.081899,13.582893
22.868543,-31.581899,13.582893
22.868543,-30.081899,13.582893
22.868543,-40.233284,14.888740
22.868543,-38.733284,14.888740
22.868543,-37.233284,14.888740
22.868543,-35.733284,14.888740
22.868543,-34.233284,14.888740
22.868543,-32.733284,14.888740
22.868543,-31.233284,14.888740
22.868543,-41.060133,16.194588
22.868543,-39.560133,16.194588
22.868543,-38.060133,16.194588
22.868543,-36.560133,16.194588
22.868543,-35.060133,16.194588
22.868543,-33.560133,16.194588
22.868543,-41.307670,17.500436
22.868543,-39.807670,17.500436
22.868543,-38.307670,17.500436
22.868543,-36.807670,17.500436
22.868543,-35.307670,17.500436
22.868543,-40.673743,18.806284
22.868543,-39.173743,18.806284
22.868543,-37.673743,18.806284
19.685507,-33.451356,0.535545
19.685507,-31.951356,0.535545
19.685507,-30.451356,0.535545
19.685507,-28.951356,0.535545
19.685507,-27.451356,0.535545
19.685507,-25.951356,0.535545
19.685507,-24.451356,0.535545
19.685507,-34.115841,1.933402
19.685507,-32.615841,1.933402
19.685507,-31.115841,1.933402
19.685507,-29.615841,1.933402
19.685507,-28.115841,1.933402
19.685507,-26.615841,1.933402
19.685507,-25.115841,1.933402
19.685507,-23.615841,1.933402
19.685507,-34.325363,3.331258
19.685507,-32.825363,3.331258
19.685507,-31.325363,3.331258
19.685507,-29.825363,3.331258
19.685507,-28.325363,3.331258
19.685507,-26.825363,3.331258
19.685507,-25.325363,3.331258
19.685507,-23.825363,3.331258
19.685507,-34.344983,4.729115
19.685507,-32.844983,4.729115
19.685507,-31.344983,4.729115
19.685507,-29.844983,4.729115
19.685507,-28.344983,4.729115
19.685507,-26.844983,4.729115
19.685507,-25.344983,4.729115
19.685507,-23.844983,4.729115
19.685507,-22.344983,4.729115
19.685507,-34.377549,6.126971
19.685507,-32.877549,6.126971
19.685507,-31.377549,6.126971
19.685507,-29.877549,6.126971
19.685507,-28.377549,6.126971
19.685507,-26.877549,6.126971
19.685507,-25.377549,6.126971
19.685507,-23.877549,6.126971
19.685507,-22.377549,6.126971
19.685507,-34.563701,7.524827
19.685507,-33.063701,7.524827
19.685507,-31.563701,7.524827
19.685507,-30.063701,7.524827
19.685507,-28.563701,7.524827
19.685507,-27.063701,7.524827
19.685507,-25.563701,7.524827
19.685507,-24.063701,7.524827
19.685507,-22.563701,7.524827
19.685507,-34.981869,8.922684
19.685507,-33.481869,8.922684
19.685507,-31.981869,8.922684
19.685507,-30.481869,8.922684
19.685507,-28.981869,8.922684
19.685507,-27.481869,8.922684
19.685507,-25.981869,8.922684
19.685507,-24.481869,8.922684
19.685507,-22.981869,8.922684
19.685507,-35.648271,10.320540
19.685507,-34.148271,10.320540
19.685507,-32.648271,10.320540
19.685507,-31.148271,10.320540
19.685507,-29.648271,10.320540
19.685507,-28.148271,10.320540
19.685507,-26.648271,10.320540
19.685507,-25.148271,10.320540
19.685507,-36.516917,11.718396
19.685507,-35.016917,11.718396
19.685507,-33.516917,11.718396
19.685507,-32.016917,11.718396
19.685507,-30.516917,11.718396
19.685507,-29.016917,11.718396
19.685507,-27.516917,11.718396
19.685507,-26.016917,11.718396
19.685507,-37.479606,13.116253
19.685507,-35.979606,13.116253
19.685507,-34.479606,13.116253
19.685507,-32.979606,13.116253
19.685507,-31.479606,13.116253
19.685507,-29.979606,13.116253
19.685507,-28.479606,13.116253
19.685507,-26.979606,13.116253
19.685507,-38.365927,14.514109
19.685507,-36.865927,14.514109
19.685507,-35.365927,14.514109
19.685507,-33.865927,14.514109
19.685507,-32.365927,14.514109
19.685507,-30.865927,14.514109
19.685507,-29.365927,14.514109
19.685507,-38.943258,15.911965
19.685507,-37.443258,15.911965
19.685507,-35.943258,15.911965
19.685507,-34.443258,15.911965
19.685507,-32.943258,15.911965
19.685507,-31.443258,15.911965
19.685507,-38.916769,17.309822
19.685507,-37.416769,17.309822
19.685507,-35.916769,17.309822
19.685507,-34.416769,17.309822
19.685507,-32.916769,17.309822
19.685507,-37.929417,18.707678
19.685507,-36.429417,18.707678
19.685507,-34.929417,18.707678
19.685507,-33.429417,18.707678
19.685507,-35.561952,20.105534
19.685507,-34.061952,20.105534
18.520981,-34.081179,0.533346
18.520981,-32.581179,0.533346
18.520981,-31.081179,0.533346
18.520981,-29.581179,0.533346
18.520981,-28.081179,0.533346
18.520981,-26.581179,0.533346
18.520981,-25.081179,0.533346
18.520981,-34.637470,1.924079
18.520981,-33.137470,1.924079
18.520981,-31.637470,1.924079
18.520981,-30.137470,1.924079
18.520981,-28.637470,1.924079
18.520981,-27.137470,1.924079
18.520981,-25.637470,1.924079
18.520981,-24.137470,1.924079
18.520981,-34.722117,3.314813
18.520981,-33.222117,3.314813
18.520981,-31.722117,3.314813
18.520981,-30.222117,3.314813
18.520981,-28.722117,3.314813
18.520981,-27.222117,3.314813
18.520981,-25.722117,3.314813
18.520981,-24.222117,3.314813
18.520981,-22.722117,3.314813
18.520981,-34.597813,4.705546
18.520981,-33.097813,4.705546
18.520981,-31.597813,4.705546
18.520981,-30.097813,4.705546
18.520981,-28.597813,4.705546
18.520981,-27.097813,4.705546
18.520981,-25.597813,4.705546
18.520981,-24.097813,4.705546
18.520981,-22.597813,4.705546
18.520981,-34.466301,6.096280
18.520981,-32.966301,6.096280
18.520981,-31.466301,6.096280
18.520981,-29.966301,6.096280
18.520981,-28.466301,6.096280
18.520981,-26.966301,6.096280
18.520981,-25.466301,6.096280
18.520981,-23.966301,6.096280
18.520981,-22.466301,6.096280
18.520981,-34.468370,7.487013
18.520981,-32.968370,7.487013
18.520981,-31.468370,7.487013
18.520981,-29.968370,7.487013
18.520981,-28.468370,7.487013
18.520981,-26.968370,7.487013
18.520981,-25.468370,7.487013
18.520981,-23.968370,7.487013
18.520981,-22.468370,7.487013
18.520981,-34.683860,8.877747
18.520981,-33.183860,8.877747
18.520981,-31.683860,8.877747
18.520981,-30.183860,8.877747
18.520981,-28.683860,8.877747
18.520981,-27.183860,8.877747
18.520981,-25.683860,8.877747
18.520981,-24.183860,8.877747
18.520981,-35.131657,10.268480
18.520981,-33.631657,10.268480
18.520981,-32.131657,10.268480
18.520981,-30.631657,10.268480
18.520981,-29.131657,10.268480
18.520981,-27.631657,10.268480
18.520981,-26.131657,10.268480
18.520981,-24.631657,10.268480
18.520981,-35.769696,11.659214
18.520981,-34.269696,11.659214
18.520981,-32.769696,11.659214
18.520981,-31.269696,11.659214
18.520981,-29.769696,11.659214
18.520981,-28.269696,11.659214
18.520981,-26.769696,11.659214
18.520981,-25.269696,11.659214
18.520981,-36.494959,13.049947
18.520981,-34.994959,13.049947
18.520981,-33.494959,13.049947
18.520981,-31.994959,13.049947
18.520981,-30.494959,13.049947
18.520981,-28.994959,13.049947
18.520981,-27.494959,13.049947
18.520981,-37.143479,14.440681
18.520981,-35.643479,14.440681
18.520981,-34.143479,14.440681
18.520981,-32.643479,14.440681
18.520981,-31.143479,14.440681
18.520981,-29.643479,14.440681
18.520981,-28.143479,14.440681
18.520981,-37.490335,15.831414
18.520981,-35.990335,15.831414
18.520981,-34.490335,15.831414
18.520981,-32.990335,15.831414
18.520981,-31.490335,15.831414
18.520981,-29.990335,15.831414
18.520981,-37.249653,17.222148
18.520981,-35.749653,17.222148
18.520981,-34.249653,17.222148
18.520981,-32.749653,17.222148
18.520981,-31.249653,17.222148
18.520981,-36.074612,18.612881
18.520981,-34.574612,18.612881
18.520981,-33.074612,18.612881
18.520981,-31.574612,18.612881
18.520981,-33.557433,20.003615
18.520981,-32.057433,20.003615
17.666995,-34.537732,0.529652
17.666995,-33.037732,0.529652
17.666995,-31.537732,0.529652
17.666995,-30.037732,0.529652
17.666995,-28.537732,0.529652
17.666995,-27.037732,0.529652
17.666995,-25.537732,0.529652
17.666995,-34.997050,1.897710
17.666995,-33.497050,1.897710
17.666995,-31.997050,1.897710
17.666995,-30.497050,1.897710
17.666995,-28.997050,1.897710
17.666995,-27.497050,1.897710
17.666995,-25.997050,1.897710
17.666995,-24.497050,1.897710
17.666995,-34.979071,3.265769
17.666995,-33.479071,3.265769
17.666995,-31.979071,3.265769
17.666995,-30.479071,3.265769
17.666995,-28.979071,3.265769
17.666995,-27.479071,3.265769
17.666995,-25.979071,3.265769
17.666995,-24.479071,3.265769
17.666995,-22.979071,3.265769
17.666995,-34.736189,4.633827
17.666995,-33.236189,4.633827
17.666995,-31.736189,4.633827
17.666995,-30.236189,4.633827
17.666995,-28.736189,4.633827
17.666995,-27.236189,4.633827
17.666995,-25.736189,4.633827
17.666995,-24.236189,4.633827
17.666995,-22.736189,4.633827
17.666995,-34.463725,6.001885
17.666995,-32.963725,6.001885
17.666995,-31.463725,6.001885
17.666995,-29.963725,6.001885
17.666995,-28.463725,6.001885
17.666995,-26.963725,6.001885
17.666995,-25.463725,6.001885
17.666995,-23.963725,6.001885
17.666995,-22.463725,6.001885
17.666995,-34.299928,7.369944
17.666995,-32.799928,7.369944
17.666995,-31.299928,7.369944
17.666995,-29.799928,7.369944
17.666995,-28.299928,7.369944
17.666995,-26.799928,7.369944
17.666995,-25.299928,7.369944
17.666995,-23.799928,7.369944
17.666995,-34.325974,8.738002
17.666995,-32.825974,8.738002
17.666995,-31.325974,8.738002
17.666995,-29.825974,8.738002
17.666995,-28.325974,8.738002
17.666995,-26.825974,8.738002
17.666995,-25.325974,8.738002
17.666995,-23.825974,8.738002
17.666995,-34.565966,10.106061
17.666995,-33.065966,10.106061
17.666995,-31.565966,10.106061
17.666995,-30.065966,10.106061
17.666995,-28.565966,10.106061
17.666995,-27.065966,10.106061
17.666995,-25.565966,10.106061
17.666995,-24.065966,10.106061
17.666995,-34.986934,11.474119
17.666995,-33.486934,11.474119
17.666995,-31.986934,11.474119
17.666995,-30.486934,11.474119
17.666995,-28.986934,11.474119
17.666995,-27.486934,11.474119
17.666995,-25.986934,11.474119
17.666995,-35.498836,12.842177
17.666995,-33.998836,12.842177
17.666995,-32.498836,12.842177
17.666995,-30.998836,12.842177
17.666995,-29.498836,12.842177
17.666995,-27.998836,12.842177
17.666995,-26.498836,12.842177
17.666995,-35.954556,14.210236
17.666995,-34.454556,14.210236
17.666995,-32.954556,14.210236
17.666995,-31.454556,14.210236
17.666995,-29.954556,14.210236
17.666995,-28.454556,14.210236
17.666995,-36.149907,15.578294
17.666995,-34.649907,15.578294
17.666995,-33.149907,15.578294
17.666995,-31.649907,15.578294
17.666995,-30.149907,15.578294
17.666995,-28.649907,15.578294
17.666995,-35.823626,16.946352
17.666995,-34.323626,16.946352
17.666995,-32.823626,16.946352
17.666995,-31.323626,16.946352
17.666995,-29.823626,16.946352
17.666995,-34.657381,18.314411
17.666995,-33.157381,18.314411
17.666995,-31.657381,18.314411
17.666995,-32.275765,19.682469
17.666995,-30.775765,19.682469
16.890644,-34.937068,0.525042
16.890644,-33.437068,0.525042
16.890644,-31.937068,0.525042
16.890644,-30.437068,0.525042
16.890644,-28.937068,0.525042
16.890644,-27.437068,0.525042
16.890644,-25.937068,0.525042
16.890644,-35.297534,1.858424
16.890644,-33.797534,1.858424
16.890644,-32.297534,1.858424
16.890644,-30.797534,1.858424
16.890644,-29.297534,1.858424
16.890644,-27.797534,1.858424
16.890644,-26.297534,1.858424
16.890644,-24.797534,1.858424
16.890644,-35.182253,3.191806
16.890644,-33.682253,3.191806
16.890644,-32.182253,3.191806
16.890644,-30.682253,3.191806
16.890644,-29.182253,3.191806
16.890644,-27.682253,3.191806
16.890644,-26.182253,3.191806
16.890644,-24.682253,3.191806
16.890644,-34.827743,4.525189
16.890644,-33.327743,4.525189
16.890644,-31.827743,4.525189
16.890644,-30.327743,4.525189
16.890644,-28.827743,4.525189
16.890644,-27.327743,4.525189
16.890644,-25.827743,4.525189
16.890644,-24.327743,4.525189
16.890644,-34.419020,5.858571
16.890644,-32.919020,5.858571
16.890644,-31.419020,5.858571
16.890644,-29.919020,5.858571
16.890644,-28.419020,5.858571
16.890644,-26.919020,5.858571
16.890644,-25.419020,5.858571
16.890644,-23.919020,5.858571
16.890644,-34.089596,7.191953
16.890644,-32.589596,7.191953
16.890644,-31.089596,7.191953
16.890644,-29.589596,7.191953
16.890644,-28.089596,7.191953
16.890644,-26.589596,7.191953
16.890644,-25.089596,7.191953
16.890644,-23.589596,7.191953
16.890644,-33.921483,8.525336
16.890644,-32.421483,8.525336
16.890644,-30.921483,8.525336
16.890644,-29.421483,8.525336
16.890644,-27.921483,8.525336
16.890644,-26.421483,8.525336
16.890644,-24.921483,8.525336
16.890644,-23.421483,8.525336
16.890644,-33.945187,9.858718
16.890644,-32.445187,9.858718
16.890644,-30.945187,9.858718
16.890644,-29.445187,9.858718
16.890644,-27.945187,9.858718
16.890644,-26.445187,9.858718
16.890644,-24.945187,9.858718
16.890644,-23.445187,9.858718
16.890644,-34.139714,11.192100
16.890644,-32.639714,11.192100
16.890644,-31.139714,11.192100
16.890644,-29.639714,11.192100
16.890644,-28.139714,11.192100
16.890644,-26.639714,11.192100
16.890644,-25.139714,11.192100
16.890644,-34.432567,12.525483
16.890644,-32.932567,12.525483
16.890644,-31.432567,12.525483
16.890644,-29.932567,12.525483
16.890644,-28.432567,12.525483
16.890644,-26.932567,12.525483
16.890644,-25.432567,12.525483
16.890644,-34.699744,13.858865
16.890644,-33.199744,13.858865
16.890644,-31.699744,13.858865
16.890644,-30.199744,13.858865
16.890644,-28.699744,13.858865
16.890644,-27.199744,13.858865
16.890644,-34.765744,15.192247
16.890644,-33.265744,15.192247
16.890644,-31.765744,15.192247
16.890644,-30.265744,15.192247
16.890644,-28.765744,15.192247
16.890644,-34.403561,16.525630
16.890644,-32.903561,16.525630
16.890644,-31.403561,16.525630
16.890644,-29.903561,16.525630
16.890644,-33.334686,17.859012
16.890644,-31.834686,17.859012
16.890644,-30.334686,17.859012
16.890644,-31.229108,19.192394
15.337944,-35.648105,0.513742
15.337944,-34.148105,0.513742
15.337944,-32.648105,0.513742
15.337944,-31.148105,0.513742
15.337944,-29.648105,0.513742
15.337944,-28.148105,0.513742
15.337944,-26.648105,0.513742
15.337944,-35.792567,1.734063
15.337944,-34.292567,1.734063
15.337944,-32.792567,1.734063
15.337944,-31.292567,1.734063
15.337944,-29.792567,1.734063
15.337944,-28.292567,1.734063
15.337944,-26.792567,1.734063
15.337944,-25.292567,1.734063
15.337944,-35.490259,2.954384
15.337944,-33.990259,2.954384
15.337944,-32.490259,2.954384
15.337944,-30.990259,2.954384
15.337944,-29.490259,2.954384
15.337944,-27.990259,2.954384
15.337944,-26.490259,2.954384
15.337944,-24.990259,2.954384
15.337944,-34.928840,4.174705
15.337944,-33.428840,4.174705
15.337944,-31.928840,4.174705
15.337944,-30.428840,4.174705
15.337944,-28.928840,4.174705
15.337944,-27.428840,4.174705
15.337944,-25.928840,4.174705
15.337944,-24.428840,4.174705
15.337944,-34.259834,5.395026
15.337944,-32.759834,5.395026
15.337944,-31.259834,5.395026
15.337944,-29.759834,5.395026
15.337944,-28.259834,5.395026
15.337944,-26.759834,5.395026
15.337944,-25.259834,5.395026
15.337944,-23.759834,5.395026
15.337944,-33.598633,6.615347
15.337944,-32.098633,6.615347
15.337944,-30.598633,6.615347
15.337944,-29.098633,6.615347
15.337944,-27.598633,6.615347
15.337944,-26.098633,6.615347
15.337944,-24.598633,6.615347
15.337944,-33.024495,7.835668
15.337944,-31.524495,7.835668
15.337944,-30.024495,7.835668
15.337944,-28.524495,7.835668
15.337944,-27.024495,7.835668
15.337944,-25.524495,7.835668
15.337944,-24.024495,7.835668
15.337944,-32.580545,9.055989
15.337944,-31.080545,9.055989
15.337944,-29.580545,9.055989
15.337944,-28.080545,9.055989
15.337944,-26.580545,9.055989
15.337944,-25.080545,9.055989
15.337944,-32.273776,10.276310
15.337944,-30.773776,10.276310
15.337944,-29.273776,10.276310
15.337944,-27.773776,10.276310
15.337944,-26.273776,10.276310
15.337944,-24.773776,10.276310
15.337944,-32.075046,11.496631
15.337944,-30.575046,11.496631
15.337944,-29.075046,11.496631
15.337944,-27.575046,11.496631
15.337944,-26.075046,11.496631
15.337944,-31.919079,12.716952
15.337944,-30.419079,12.716952
15.337944,-28.919079,12.716952
15.337944,-27.419079,12.716952
15.337944,-25.919079,12.716952
15.337944,-31.704470,13.937273
15.337944,-30.204470,13.937273
15.337944,-28.704470,13.937273
15.337944,-27.204470,13.937273
15.337944,-31.293675,15.157594
15.337944,-29.793675,15.157594
15.337944,-28.293675,15.157594
15.337944,-30.513021,16.377915
15.337944,-29.013021,16.377915
15.337944,-29.152700,17.598236
13.940513,-36.124217,0.504047
13.940513,-34.624217,0.504047
13.940513,-33.124217,0.504047
13.940513,-31.624217,0.504047
13.940513,-30.124217,0.504047
13.940513,-28.624217,0.504047
13.940513,-36.077357,1.568982
13.940513,-34.577357,1.568982
13.940513,-33.077357,1.568982
13.940513,-31.577357,1.568982
13.940513,-30.077357,1.568982
13.940513,-28.577357,1.568982
13.940513,-27.077357,1.568982
13.940513,-35.647202,2.633917
13.940513,-34.147202,2.633917
13.940513,-32.647202,2.633917
13.940513,-31.147202,2.633917
13.940513,-29.647202,2.633917
13.940513,-28.147202,2.633917
13.940513,-26.647202,2.633917
13.940513,-34.963838,3.698852
13.940513,-33.463838,3.698852
13.940513,-31.963838,3.698852
13.940513,-30.463838,3.698852
13.940513,-28.963838,3.698852
13.940513,-27.463838,3.698852
13.940513,-25.963838,3.698852
13.940513,-34.136392,4.763787
13.940513,-32.636392,4.763787
13.940513,-31.136392,4.763787
13.940513,-29.636392,4.763787
13.940513,-28.136392,4.763787
13.940513,-26.636392,4.763787
13.940513,-25.136392,4.763787
13.940513,-33.253037,5.828722
13.940513,-31.753037,5.828722
13.940513,-30.253037,5.828722
13.940513,-28.753037,5.828722
13.940513,-27.253037,5.828722
13.940513,-25.753037,5.828722
13.940513,-32.380990,6.893656
13.940513,-30.880990,6.893656
13.940513,-29.380990,6.893656
13.940513,-27.880990,6.893656
13.940513,-26.380990,6.893656
13.940513,-24.880990,6.893656
13.940513,-31.566512,7.958591
13.940513,-30.066512,7.958591
13.940513,-28.566512,7.958591
13.940513,-27.066512,7.958591
13.940513,-25.566512,7.958591
13.940513,-30.834908,9.023526
13.940513,-29.334908,9.023526
13.940513,-27.834908,9.023526
13.940513,-26.334908,9.023526
13.940513,-24.834908,9.023526
13.940513,-30.190528,10.088461
13.940513,-28.690528,10.088461
13.940513,-27.190528,10.088461
13.940513,-25.690528,10.088461
13.940513,-29.616766,11.153396
13.940513,-28.116766,11.153396
13.940513,-26.616766,11.153396
13.940513,-29.076060,12.218331
13.940513,-27.576060,12.218331
13.940513,-26.076060,12.218331
13.940513,-28.509893,13.283266
13.940513,-27.009893,13.283266
13.940513,-27.838791,14.348200
13.940513,-27.408265,15.413135
12.698352,-36.352128,0.499173
12.698352,-34.852128,0.499173
12.698352,-33.352128,0.499173
12.698352,-31.852128,0.499173
12.698352,-30.352128,0.499173
12.698352,-36.166770,1.380977
12.698352,-34.666770,1.380977
12.698352,-33.166770,1.380977
12.698352,-31.666770,1.380977
12.698352,-30.166770,1.380977
12.698352,-35.686681,2.262782
12.698352,-34.186681,2.262782
12.698352,-32.686681,2.262782
12.698352,-31.186681,2.262782
12.698352,-29.686681,2.262782
12.698352,-28.186681,2.262782
12.698352,-34.989138,3.144587
12.698352,-33.489138,3.144587
12.698352,-31.989138,3.144587
12.698352,-30.489138,3.144587
12.698352,-28.989138,3.144587
12.698352,-34.141566,4.026391
12.698352,-32.641566,4.026391
12.698352,-31.141566,4.026391
12.698352,-29.641566,4.026391
12.698352,-28.141566,4.026391
12.698352,-33.201537,4.908196
12.698352,-31.701537,4.908196
12.698352,-30.201537,4.908196
12.698352,-28.701537,4.908196
12.698352,-27.201537,4.908196
12.698352,-32.216775,5.790000
12.698352,-30.716775,5.790000
12.698352,-29.216775,5.790000
12.698352,-27.716775,5.790000
12.698352,-26.216775,5.790000
12.698352,-31.225148,6.671805
12.698352,-29.725148,6.671805
12.698352,-28.225148,6.671805
12.698352,-26.725148,6.671805
12.698352,-30.254677,7.553610
12.698352,-28.754677,7.553610
12.698352,-27.254677,7.553610
12.698352,-25.754677,7.553610
12.698352,-29.323529,8.435414
12.698352,-27.823529,8.435414
12.698352,-26.323529,8.435414
12.698352,-28.440021,9.317219
12.698352,-26.940021,9.317219
12.698352,-27.602616,10.199023
12.698352,-26.102616,10.199023
12.698352,-26.799928,11.080828
12.698352,-26.372115,11.962633
12.698352,-26.715009,12.844437
12.698352,-25.215009,12.844437
13.319432,-36.265195,0.500946
13.319432,-34.765195,0.500946
13.319432,-33.265195,0.500946
13.319432,-31.765195,0.500946
13.319432,-30.265195,0.500946
13.319432,-28.765195,0.500946
13.319432,-36.143405,1.479696
13.319432,-34.643405,1.479696
13.319432,-33.143405,1.479696
13.319432,-31.643405,1.479696
13.319432,-30.143405,1.479696
13.319432,-28.643405,1.479696
13.319432,-35.679019,2.458447
13.319432,-34.179019,2.458447
13.319432,-32.679019,2.458447
13.319432,-31.179019,2.458447
13.319432,-29.679019,2.458447
13.319432,-28.179019,2.458447
13.319432,-34.975253,3.437198
13.319432,-33.475253,3.437198
13.319432,-31.975253,3.437198
13.319432,-30.475253,3.437198
13.319432,-28.975253,3.437198
13.319432,-27.475253,3.437198
13.319432,-34.120370,4.415948
13.319432,-32.620370,4.415948
13.319432,-31.120370,4.415948
13.319432,-29.620370,4.415948
13.319432,-28.120370,4.415948
13.319432,-26.620370,4.415948
13.319432,-33.187681,5.394699
13.319432,-31.687681,5.394699
13.319432,-30.187681,5.394699
13.319432,-28.687681,5.394699
13.319432,-27.187681,5.394699
13.319432,-25.687681,5.394699
13.319432,-32.235546,6.373450
13.319432,-30.735546,6.373450
13.319432,-29.235546,6.373450
13.319432,-27.735546,6.373450
13.319432,-26.235546,6.373450
13.319432,-31.307372,7.352200
13.319432,-29.807372,7.352200
13.319432,-28.307372,7.352200
13.319432,-26.807372,7.352200
13.319432,-25.307372,7.352200
13.319432,-30.431614,8.330951
13.319432,-28.931614,8.330951
13.319432,-27.431614,8.330951
13.319432,-25.931614,8.330951
13.319432,-29.621775,9.309702
13.319432,-28.121775,9.309702
13.319432,-26.621775,9.309702
13.319432,-25.121775,9.309702
13.319432,-28.876407,10.288453
13.319432,-27.376407,10.288453
13.319432,-25.876407,10.288453
13.319432,-28.179110,11.267203
13.319432,-26.679110,11.267203
13.319432,-27.498529,12.245954
13.319432,-26.788362,13.224705
13.319432,-26.990631,14.203455
13.474703,-36.234710,0.501614
13.474703,-34.734710,0.501614
13.474703,-33.234710,0.501614
13.474703,-31.734710,0.501614
13.474703,-30.234710,0.501614
13.474703,-28.734710,0.501614
13.474703,-36.130741,1.502915
13.474703,-34.630741,1.502915
13.474703,-33.130741,1.502915
13.474703,-31.630741,1.502915
13.474703,-30.130741,1.502915
13.474703,-28.630741,1.502915
13.474703,-35.673298,2.504217
13.474703,-34.173298,2.504217
13.474703,-32.673298,2.504217
13.474703,-31.173298,2.504217
13.474703,-29.673298,2.504217
13.474703,-28.173298,2.504217
13.474703,-34.972278,3.505518
13.474703,-33.472278,3.505518
13.474703,-31.972278,3.505518
13.474703,-30.472278,3.505518
13.474703,-28.972278,3.505518
13.474703,-27.472278,3.505518
13.474703,-34.121197,4.506820
13.474703,-32.621197,4.506820
13.474703,-31.121197,4.506820
13.474703,-29.621197,4.506820
13.474703,-28.121197,4.506820
13.474703,-26.621197,4.506820
13.474703,-33.197196,5.508121
13.474703,-31.697196,5.508121
13.474703,-30.197196,5.508121
13.474703,-28.697196,5.508121
13.474703,-27.197196,5.508121
13.474703,-25.697196,5.508121
13.474703,-32.261037,6.509423
13.474703,-30.761037,6.509423
13.474703,-29.261037,6.509423
13.474703,-27.761037,6.509423
13.474703,-26.261037,6.509423
13.474703,-31.357101,7.510724
13.474703,-29.857101,7.510724
13.474703,-28.357101,7.510724
13.474703,-26.857101,7.510724
13.474703,-25.357101,7.510724
13.474703,-30.513393,8.512026
13.474703,-29.013393,8.512026
13.474703,-27.513393,8.512026
13.474703,-26.013393,8.512026
13.474703,-29.741540,9.513327
13.474703,-28.241540,9.513327
13.474703,-26.741540,9.513327
13.474703,-25.241540,9.513327
13.474703,-29.036789,10.514629
13.474703,-27.536789,10.514629
13.474703,-26.036789,10.514629
13.474703,-28.378010,11.515930
13.474703,-26.878010,11.515930
13.474703,-27.727693,12.517232
13.474703,-26.227693,12.517232
13.474703,-27.031952,13.518534
13.474703,-27.085973,14.519835
43.830006,-37.746255,3.771954
43.830006,-37.949402,4.304985
43.830006,-38.098481,4.838017
43.830006,-36.598481,4.838017
43.830006,-38.202118,5.371048
43.830006,-36.702118,5.371048
43.830006,-38.267624,5.904080
43.830006,-36.767624,5.904080
43.830006,-38.300995,6.437111
43.830006,-36.800995,6.437111
43.830006,-38.306912,6.970143
43.830006,-36.806912,6.970143
43.830006,-35.306912,6.970143
43.830006,-38.288741,7.503174
43.830006,-36.788741,7.503174
43.830006,-35.288741,7.503174
43.830006,-38.248531,8.036206
43.830006,-36.748531,8.036206
43.830006,-35.248531,8.036206
43.830006,-38.187017,8.569237
43.830006,-36.687017,8.569237
43.830006,-35.187017,8.569237
43.830006,-38.103619,9.102269
43.830006,-36.603619,9.102269
43.830006,-37.996440,9.635301
43.830006,-36.496440,9.635301
43.830006,-37.862271,10.168332
43.830006,-36.362271,10.168332
43.830006,-37.696584,10.701364
43.830006,-36.196584,10.701364
43.830006,-37.493539,11.234395
42.587845,-37.190938,3.083693
42.587845,-37.446151,3.684858
42.587845,-35.946151,3.684858
42.587845,-37.626800,4.286022
42.587845,-36.126800,4.286022
42.587845,-37.747430,4.887187
42.587845,-36.247430,4.887187
42.587845,-37.820459,5.488352
42.587845,-36.320459,5.488352
42.587845,-34.820459,5.488352
42.587845,-37.856175,6.089517
42.587845,-36.356175,6.089517
42.587845,-34.856175,6.089517
42.587845,-37.862738,6.690682
42.587845,-36.362738,6.690682
42.587845,-34.862738,6.690682
42.587845,-37.846182,7.291846
42.587845,-36.346182,7.291846
42.587845,-34.846182,7.291846
42.587845,-37.810410,7.893011
42.587845,-36.310410,7.893011
42.587845,-34.810410,7.893011
42.587845,-37.757200,8.494176
42.587845,-36.257200,8.494176
42.587845,-34.757200,8.494176
42.587845,-37.686199,9.095341
42.587845,-36.186199,9.095341
42.587845,-34.686199,9.095341
42.587845,-37.594929,9.696506
42.587845,-36.094929,9.696506
42.587845,-34.594929,9.696506
42.587845,-37.478780,10.297670
42.587845,-35.978780,10.297670
42.587845,-37.331019,10.898835
42.587845,-35.831019,10.898835
42.587845,-37.142780,11.500000
39.870618,-35.659724,1.949514
39.870618,-34.159724,1.949514
39.870618,-36.000145,2.602239
39.870618,-34.500145,2.602239
39.870618,-36.235807,3.254965
39.870618,-34.735807,3.254965
39.870618,-33.235807,3.254965
39.870618,-36.390382,3.907691
39.870618,-34.890382,3.907691
39.870618,-33.390382,3.907691
39.870618,-36.484585,4.560416
39.870618,-34.984585,4.560416
39.870618,-33.484585,4.560416
39.870618,-36.536170,5.213142
39.870618,-35.036170,5.213142
39.870618,-33.536170,5.213142
39.870618,-36.559938,5.865868
39.870618,-35.059938,5.865868
39.870618,-33.559938,5.865868
39.870618,-32.059938,5.865868
39.870618,-36.567730,6.518593
39.870618,-35.067730,6.518593
39.870618,-33.567730,6.518593
39.870618,-32.067730,6.518593
39.870618,-36.568430,7.171319
39.870618,-35.068430,7.171319
39.870618,-33.568430,7.171319
39.870618,-32.068430,7.171319
39.870618,-36.567964,7.824044
39.870618,-35.067964,7.824044
39.870618,-33.567964,7.824044
39.870618,-32.067964,7.824044
39.870618,-36.569300,8.476770
39.870618,-35.069300,8.476770
39.870618,-33.569300,8.476770
39.870618,-32.069300,8.476770
39.870618,-36.572451,9.129496
39.870618,-35.072451,9.129496
39.870618,-33.572451,9.129496
39.870618,-36.574469,9.782221
39.870618,-35.074469,9.782221
39.870618,-33.574469,9.782221
39.870618,-36.569450,10.434947
39.870618,-35.069450,10.434947
39.870618,-33.569450,10.434947
39.870618,-36.548534,11.087673
39.870618,-35.048534,11.087673
36.920486,-33.824993,1.178763
36.920486,-32.324993,1.178763
36.920486,-34.231431,1.839308
36.920486,-32.731431,1.839308
36.920486,-31.231431,1.839308
36.920486,-34.516443,2.499853
36.920486,-33.016443,2.499853
36.920486,-31.516443,2.499853
36.920486,-34.708427,3.160399
36.920486,-33.208427,3.160399
36.920486,-31.708427,3.160399
36.920486,-34.832674,3.820944
36.920486,-33.332674,3.820944
36.920486,-31.832674,3.820944
36.920486,-34.911379,4.481489
36.920486,-33.411379,4.481489
36.920486,-31.911379,4.481489
36.920486,-30.411379,4.481489
36.920486,-34.963629,5.142034
36.920486,-33.463629,5.142034
36.920486,-31.963629,5.142034
36.920486,-30.463629,5.142034
36.920486,-35.005415,5.802579
36.920486,-33.505415,5.802579
36.920486,-32.005415,5.802579
36.920486,-30.505415,5.802579
36.920486,-35.049622,6.463125
36.920486,-33.549622,6.463125
36.920486,-32.049622,6.463125
36.920486,-30.549622,6.463125
36.920486,-35.106035,7.123670
36.920486,-33.606035,7.123670
36.920486,-32.106035,7.123670
36.920486,-30.606035,7.123670
36.920486,-35.181337,7.784215
36.920486,-33.681337,7.784215
36.920486,-32.181337,7.784215
36.920486,-30.681337,7.784215
36.920486,-35.279108,8.444760
36.920486,-33.779108,8.444760
36.920486,-32.279108,8.444760
36.920486,-30.779108,8.444760
36.920486,-35.399828,9.105305
36.920486,-33.899828,9.105305
36.920486,-32.399828,9.105305
36.920486,-30.899828,9.105305
36.920486,-35.540873,9.765851
36.920486,-34.040873,9.765851
36.920486,-32.540873,9.765851
36.920486,-35.696520,10.426396
36.920486,-34.196520,10.426396
36.920486,-32.696520,10.426396
34.280895,-32.349243,0.786089
34.280895,-30.849243,0.786089
34.280895,-32.817637,1.480709
34.280895,-31.317637,1.480709
34.280895,-29.817637,1.480709
34.280895,-33.146749,2.175328
34.280895,-31.646749,2.175328
34.280895,-30.146749,2.175328
34.280895,-33.371775,2.869947
34.280895,-31.871775,2.869947
34.280895,-30.371775,2.869947
34.280895,-28.871775,2.869947
34.280895,-33.524120,3.564566
34.280895,-32.024120,3.564566
34.280895,-30.524120,3.564566
34.280895,-29.024120,3.564566
34.280895,-33.631394,4.259185
34.280895,-32.131394,4.259185
34.280895,-30.631394,4.259185
34.280895,-29.131394,4.259185
34.280895,-33.717413,4.953804
34.280895,-32.217413,4.953804
34.280895,-30.717413,4.953804
34.280895,-29.217413,4.953804
34.280895,-33.802203,5.648423
34.280895,-32.302203,5.648423
34.280895,-30.802203,5.648423
34.280895,-29.302203,5.648423
34.280895,-33.901994,6.343042
34.280895,-32.401994,6.343042
34.280895,-30.901994,6.343042
34.280895,-29.401994,6.343042
34.280895,-34.029224,7.037661
34.280895,-32.529224,7.037661
34.280895,-31.029224,7.037661
34.280895,-29.529224,7.037661
34.280895,-34.192537,7.732280
34.280895,-32.692537,7.732280
34.280895,-31.192537,7.732280
34.280895,-29.692537,7.732280
34.280895,-34.396786,8.426900
34.280895,-32.896786,8.426900
34.280895,-31.396786,8.426900
34.280895,-29.896786,8.426900
34.280895,-34.643029,9.121519
34.280895,-33.143029,9.121519
34.280895,-31.643029,9.121519
34.280895,-30.143029,9.121519
34.280895,-34.928531,9.816138
34.280895,-33.428531,9.816138
34.280895,-31.928531,9.816138
34.280895,-30.428531,9.816138
34.280895,-35.246765,10.510757
34.280895,-33.746765,10.510757
34.280895,-32.246765,10.510757
34.280895,-30.746765,10.510757
31.718938,-31.297646,0.590240
31.718938,-29.797646,0.590240
31.718938,-28.297646,0.590240
31.718938,-31.847464,1.369508
31.718938,-30.347464,1.369508
31.718938,-28.847464,1.369508
31.718938,-32.226034,2.148777
31.718938,-30.726034,2.148777
31.718938,-29.226034,2.148777
31.718938,-27.726034,2.148777
31.718938,-32.484009,2.928046
31.718938,-30.984009,2.928046
31.718938,-29.484009,2.928046
31.718938,-27.984009,2.928046
31.718938,-32.666035,3.707314
31.718938,-31.166035,3.707314
31.718938,-29.666035,3.707314
31.718938,-28.166035,3.707314
31.718938,-32.810747,4.486583
31.718938,-31.310747,4.486583
31.718938,-29.810747,4.486583
31.718938,-28.310747,4.486583
31.718938,-26.810747,4.486583
31.718938,-32.950773,5.265851
31.718938,-31.450773,5.265851
31.718938,-29.950773,5.265851
31.718938,-28.450773,5.265851
31.718938,-26.950773,5.265851
31.718938,-33.112734,6.045120
31.718938,-31.612734,6.045120
31.718938,-30.112734,6.045120
31.718938,-28.612734,6.045120
31.718938,-27.112734,6.045120
31.718938,-33.317241,6.824388
31.718938,-31.817241,6.824388
31.718938,-30.317241,6.824388
31.718938,-28.817241,6.824388
31.718938,-27.317241,6.824388
31.718938,-33.578895,7.603657
31.718938,-32.078895,7.603657
31.718938,-30.578895,7.603657
31.718938,-29.078895,7.603657
31.718938,-27.578895,7.603657
31.718938,-33.906292,8.382926
31.718938,-32.406292,8.382926
31.718938,-30.906292,8.382926
31.718938,-29.406292,8.382926
31.718938,-27.906292,8.382926
31.718938,-34.302017,9.162194
31.718938,-32.802017,9.162194
31.718938,-31.302017,9.162194
31.718938,-29.802017,9.162194
31.718938,-28.302017,9.162194
31.718938,-34.762648,9.941463
31.718938,-33.262648,9.941463
31.718938,-31.762648,9.941463
31.718938,-30.262648,9.941463
31.718938,-35.278755,10.720731
31.718938,-33.778755,10.720731
31.718938,-32.278755,10.720731
31.718938,-30.778755,10.720731
31.718938,-35.834897,11.500000
31.718938,-34.334897,11.500000
31.718938,-32.834897,11.500000
31.718938,-31.334897,11.500000
28.691171,-30.734456,0.506472
28.691171,-29.234456,0.506472
28.691171,-27.734456,0.506472
28.691171,-26.234456,0.506472
28.691171,-31.405662,1.449365
28.691171,-29.905662,1.449365
28.691171,-28.405662,1.449365
28.691171,-26.905662,1.449365
28.691171,-31.845281,2.392257
28.691171,-30.345281,2.392257
28.691171,-28.845281,2.392257
28.691171,-27.345281,2.392257
28.691171,-25.845281,2.392257
28.691171,-32.141726,3.335150
28.691171,-30.641726,3.335150
28.691171,-29.141726,3.335150
28.691171,-27.641726,3.335150
28.691171,-26.141726,3.335150
28.691171,-32.370530,4.278042
28.691171,-30.870530,4.278042
28.691171,-29.370530,4.278042
28.691171,-27.870530,4.278042
28.691171,-26.370530,4.278042
28.691171,-32.594350,5.220935
28.691171,-31.094350,5.220935
28.691171,-29.594350,5.220935
28.691171,-28.094350,5.220935
28.691171,-26.594350,5.220935
28.691171,-25.094350,5.220935
28.691171,-32.862964,6.163828
28.691171,-31.362964,6.163828
28.691171,-29.862964,6.163828
28.691171,-28.362964,6.163828
28.691171,-26.862964,6.163828
28.691171,-25.362964,6.163828
28.691171,-33.213271,7.106720
28.691171,-31.713271,7.106720
28.691171,-30.213271,7.106720
28.691171,-28.713271,7.106720
28.691171,-27.213271,7.106720
28.691171,-25.713271,7.106720
28.691171,-33.669291,8.049613
28.691171,-32.169291,8.049613
28.691171,-30.669291,8.049613
28.691171,-29.169291,8.049613
28.691171,-27.669291,8.049613
28.691171,-26.169291,8.049613
28.691171,-34.242168,8.992506
28.691171,-32.742168,8.992506
28.691171,-31.242168,8.992506
28.691171,-29.742168,8.992506
28.691171,-28.242168,8.992506
28.691171,-26.742168,8.992506
28.691171,-34.930166,9.935398
28.691171,-33.430166,9.935398
28.691171,-31.930166,9.935398
28.691171,-30.430166,9.935398
28.691171,-28.930166,9.935398
28.691171,-27.430166,9.935398
28.691171,-35.718670,10.878291
28.691171,-34.218670,10.878291
28.691171,-32.718670,10.878291
28.691171,-31.218670,10.878291
28.691171,-29.718670,10.878291
28.691171,-36.580188,11.821184
28.691171,-35.080188,11.821184
28.691171,-33.580188,11.821184
28.691171,-32.080188,11.821184
28.691171,-30.580188,11.821184
28.691171,-37.474350,12.764076
28.691171,-35.974350,12.764076
28.691171,-34.474350,12.764076
28.691171,-32.974350,12.764076
28.691171,-31.474350,12.764076
28.691171,-38.347906,13.706969
28.691171,-36.847906,13.706969
28.691171,-35.347906,13.706969
28.691171,-33.847906,13.706969
27.138471,-30.764425,0.499594
27.138471,-29.264425,0.499594
27.138471,-27.764425,0.499594
27.138471,-26.264425,0.499594
27.138471,-31.497443,1.543296
27.138471,-29.997443,1.543296
27.138471,-28.497443,1.543296
27.138471,-26.997443,1.543296
27.138471,-25.497443,1.543296
27.138471,-31.960618,2.586999
27.138471,-30.460618,2.586999
27.138471,-28.960618,2.586999
27.138471,-27.460618,2.586999
27.138471,-25.960618,2.586999
27.138471,-32.271806,3.630702
27.138471,-30.771806,3.630702
27.138471,-29.271806,3.630702
27.138471,-27.771806,3.630702
27.138471,-26.271806,3.630702
27.138471,-24.771806,3.630702
27.138471,-32.529531,4.674405
27.138471,-31.029531,4.674405
27.138471,-29.529531,4.674405
27.138471,-28.029531,4.674405
27.138471,-26.529531,4.674405
27.138471,-25.029531,4.674405
27.138471,-32.812983,5.718107
27.138471,-31.312983,5.718107
27.138471,-29.812983,5.718107
27.138471,-28.312983,5.718107
27.138471,-26.812983,5.718107
27.138471,-25.312983,5.718107
27.138471,-33.182017,6.761810
