-24.174191,-41.717470,14.081373
-24.174191,-40.217470,14.081373
-24.174191,-38.717470,14.081373
-24.174191,-47.209257,15.212836
-24.174191,-45.709257,15.212836
-24.174191,-44.209257,15.212836
-24.174191,-42.709257,15.212836
-24.174191,-41.209257,15.212836
-24.174191,-47.905637,16.344300
-24.174191,-46.405637,16.344300
-24.174191,-44.905637,16.344300
-24.174191,-43.405637,16.344300
-23.833554,-37.798171,0.505607
-23.833554,-36.298171,0.505607
-23.833554,-34.798171,0.505607
-23.833554,-33.298171,0.505607
-23.833554,-31.798171,0.505607
-23.833554,-38.583193,1.657395
-23.833554,-37.083193,1.657395
-23.833554,-35.583193,1.657395
-23.833554,-34.083193,1.657395
-23.833554,-32.583193,1.657395
-23.833554,-31.083193,1.657395
-23.833554,-39.055504,2.809183
-23.833554,-37.555504,2.809183
-23.833554,-36.055504,2.809183
-23.833554,-34.555504,2.809183
-23.833554,-33.055504,2.809183
-23.833554,-31.555504,2.809183
-23.833554,-39.370189,3.960971
-23.833554,-37.870189,3.960971
-23.833554,-36.370189,3.960971
-23.833554,-34.870189,3.960971
-23.833554,-33.370189,3.960971
-23.833554,-31.870189,3.960971
-23.833554,-30.370189,3.960971
-23.833554,-39.653659,5.112759
-23.833554,-38.153659,5.112759
-23.833554,-36.653659,5.112759
-23.833554,-35.153659,5.112759
-23.833554,-33.653659,5.112759
-23.833554,-32.153659,5.112759
-23.833554,-30.653659,5.112759
-23.833554,-40.003649,6.264547
-23.833554,-38.503649,6.264547
-23.833554,-37.003649,6.264547
-23.833554,-35.503649,6.264547
-23.833554,-34.003649,6.264547
-23.833554,-32.503649,6.264547
-23.833554,-31.003649,6.264547
-23.833554,-40.489220,7.416334
-23.833554,-38.989220,7.416334
-23.833554,-37.489220,7.416334
-23.833554,-35.989220,7.416334
-23.833554,-34.489220,7.416334
-23.833554,-32.989220,7.416334
-23.833554,-31.489220,7.416334
-23.833554,-41.150758,8.568122
-23.833554,-39.650758,8.568122
-23.833554,-38.150758,8.568122
-23.833554,-36.650758,8.568122
-23.833554,-35.150758,8.568122
-23.833554,-33.650758,8.568122
-23.833554,-32.150758,8.568122
-23.833554,-41.999973,9.719910
-23.833554,-40.499973,9.719910
-23.833554,-38.999973,9.719910
-23.833554,-37.499973,9.719910
-23.833554,-35.999973,9.719910
-23.833554,-34.499973,9.719910
-23.833554,-32.999973,9.719910
-23.833554,-43.019902,10.871698
-23.833554,-41.519902,10.871698
-23.833554,-40.019902,10.871698
-23.833554,-38.519902,10.871698
-23.833554,-37.019902,10.871698
-23.833554,-35.519902,10.871698
-23.833554,-34.019902,10.871698
-23.833554,-44.164906,12.023486
-23.833554,-42.664906,12.023486
-23.833554,-41.164906,12.023486
-23.833554,-39.664906,12.023486
-23.833554,-38.164906,12.023486
-23.833554,-36.664906,12.023486
-23.833554,-35.164906,12.023486
-23.833554,-45.360671,13.175274
-23.833554,-43.860671,13.175274
-23.833554,-42.360671,13.175274
-23.833554,-40.860671,13.175274
-23.833554,-39.360671,13.175274
-23.833554,-37.860671,13.175274
-23.833554,-46.504209,14.327061
-23.833554,-45.004209,14.327061
-23.833554,-43.504209,14.327061
-23.833554,-42.004209,14.327061
-23.833554,-40.504209,14.327061
-23.833554,-39.004209,14.327061
-23.833554,-47.463858,15.478849
-23.833554,-45.963858,15.478849
-23.833554,-44.463858,15.478849
-23.833554,-42.963858,15.478849
-23.833554,-41.463858,15.478849
-23.833554,-48.079279,16.630637
-23.833554,-46.579279,16.630637
-23.833554,-45.079279,16.630637
-23.833554,-43.579279,16.630637
-23.663236,-37.834769,0.506582
-23.663236,-36.334769,0.506582
-23.663236,-34.834769,0.506582
-23.663236,-33.334769,0.506582
-23.663236,-31.834769,0.506582
-23.663236,-38.623597,1.668434
-23.663236,-37.123597,1.668434
-23.663236,-35.623597,1.668434
-23.663236,-34.123597,1.668434
-23.663236,-32.623597,1.668434
-23.663236,-31.123597,1.668434
-23.663236,-39.095566,2.830286
-23.663236,-37.595566,2.830286
-23.663236,-36.095566,2.830286
-23.663236,-34.595566,2.830286
-23.663236,-33.095566,2.830286
-23.663236,-31.595566,2.830286
-23.663236,-39.409539,3.992138
-23.663236,-37.909539,3.992138
-23.663236,-36.409539,3.992138
-23.663236,-34.909539,3.992138
-23.663236,-33.409539,3.992138
-23.663236,-31.909539,3.992138
-23.663236,-30.409539,3.992138
-23.663236,-39.694685,5.153990
-23.663236,-38.194685,5.153990
-23.663236,-36.694685,5.153990
-23.663236,-35.194685,5.153990
-23.663236,-33.694685,5.153990
-23.663236,-32.194685,5.153990
-23.663236,-30.694685,5.153990
-23.663236,-40.050485,6.315842
-23.663236,-38.550485,6.315842
-23.663236,-37.050485,6.315842
-23.663236,-35.550485,6.315842
-23.663236,-34.050485,6.315842
-23.663236,-32.550485,6.315842
-23.663236,-31.050485,6.315842
-23.663236,-40.546730,7.477694
-23.663236,-39.046730,7.477694
-23.663236,-37.546730,7.477694
-23.663236,-36.046730,7.477694
-23.663236,-34.546730,7.477694
-23.663236,-33.046730,7.477694
-23.663236,-31.546730,7.477694
-23.663236,-41.223518,8.639546
-23.663236,-39.723518,8.639546
-23.663236,-38.223518,8.639546
-23.663236,-36.723518,8.639546
-23.663236,-35.223518,8.639546
-23.663236,-33.723518,8.639546
-23.663236,-32.223518,8.639546
-23.663236,-42.091261,9.801398
-23.663236,-40.591261,9.801398
-23.663236,-39.091261,9.801398
-23.663236,-37.591261,9.801398
-23.663236,-36.091261,9.801398
-23.663236,-34.591261,9.801398
-23.663236,-33.091261,9.801398
-23.663236,-43.130677,10.963250
-23.663236,-41.630677,10.963250
-23.663236,-40.130677,10.963250
-23.663236,-38.630677,10.963250
-23.663236,-37.130677,10.963250
-23.663236,-35.630677,10.963250
-23.663236,-34.130677,10.963250
-23.663236,-44.292795,12.125102
-23.663236,-42.792795,12.125102
-23.663236,-41.292795,12.125102
-23.663236,-39.792795,12.125102
-23.663236,-38.292795,12.125102
-23.663236,-36.792795,12.125102
-23.663236,-35.292795,12.125102
-23.663236,-45.498954,13.286954
-23.663236,-43.998954,13.286954
-23.663236,-42.498954,13.286954
-23.663236,-40.998954,13.286954
-23.663236,-39.498954,13.286954
-23.663236,-37.998954,13.286954
-23.663236,-46.640803,14.448806
-23.663236,-45.140803,14.448806
-23.663236,-43.640803,14.448806
-23.663236,-42.140803,14.448806
-23.663236,-40.640803,14.448806
-23.663236,-39.140803,14.448806
-23.663236,-47.580301,15.610658
-23.663236,-46.080301,15.610658
-23.663236,-44.580301,15.610658
-23.663236,-43.080301,15.610658
-23.663236,-41.580301,15.610658
-23.663236,-48.149714,16.772510
-23.663236,-46.649714,16.772510
-23.663236,-45.149714,16.772510
-23.663236,-43.649714,16.772510
-22.471008,-38.144039,0.514291
-22.471008,-36.644039,0.514291
-22.471008,-35.144039,0.514291
-22.471008,-33.644039,0.514291
-22.471008,-32.144039,0.514291
-22.471008,-38.951828,1.743892
-22.471008,-37.451828,1.743892
-22.471008,-35.951828,1.743892
-22.471008,-34.451828,1.743892
-22.471008,-32.951828,1.743892
-22.471008,-31.451828,1.743892
-22.471008,-39.413714,2.973494
-22.471008,-37.913714,2.973494
-22.471008,-36.413714,2.973494
-22.471008,-34.913714,2.973494
-22.471008,-33.413714,2.973494
-22.471008,-31.913714,2.973494
-22.471008,-30.413714,2.973494
-22.471008,-39.715400,4.203095
-22.471008,-38.215400,4.203095
-22.471008,-36.715400,4.203095
-22.471008,-35.215400,4.203095
-22.471008,-33.715400,4.203095
-22.471008,-32.215400,4.203095
-22.471008,-30.715400,4.203095
-22.471008,-40.005342,5.432697
-22.471008,-38.505342,5.432697
-22.471008,-37.005342,5.432697
-22.471008,-35.505342,5.432697
-22.471008,-34.005342,5.432697
-22.471008,-32.505342,5.432697
-22.471008,-31.005342,5.432697
-22.471008,-40.394752,6.662298
-22.471008,-38.894752,6.662298
-22.471008,-37.394752,6.662298
-22.471008,-35.894752,6.662298
-22.471008,-34.394752,6.662298
-22.471008,-32.894752,6.662298
-22.471008,-31.394752,6.662298
-22.471008,-40.957596,7.891899
-22.471008,-39.457596,7.891899
-22.471008,-37.957596,7.891899
-22.471008,-36.457596,7.891899
-22.471008,-34.957596,7.891899
-22.471008,-33.457596,7.891899
-22.471008,-31.957596,7.891899
-22.471008,-30.457596,7.891899
-22.471008,-41.730595,9.121501
-22.471008,-40.230595,9.121501
-22.471008,-38.730595,9.121501
-22.471008,-37.230595,9.121501
-22.471008,-35.730595,9.121501
-22.471008,-34.230595,9.121501
-22.471008,-32.730595,9.121501
-22.471008,-31.230595,9.121501
-22.471008,-42.713226,10.351102
-22.471008,-41.213226,10.351102
-22.471008,-39.713226,10.351102
-22.471008,-38.213226,10.351102
-22.471008,-36.713226,10.351102
-22.471008,-35.213226,10.351102
-22.471008,-33.713226,10.351102
-22.471008,-43.867720,11.580704
-22.471008,-42.367720,11.580704
-22.471008,-40.867720,11.580704
-22.471008,-39.367720,11.580704
-22.471008,-37.867720,11.580704
-22.471008,-36.367720,11.580704
-22.471008,-34.867720,11.580704
-22.471008,-45.119064,12.810305
-22.471008,-43.619064,12.810305
-22.471008,-42.119064,12.810305
-22.471008,-40.619064,12.810305
-22.471008,-39.119064,12.810305
-22.471008,-37.619064,12.810305
-22.471008,-36.119064,12.810305
-22.471008,-46.354999,14.039906
-22.471008,-44.854999,14.039906
-22.471008,-43.354999,14.039906
-22.471008,-41.854999,14.039906
-22.471008,-40.354999,14.039906
-22.471008,-38.854999,14.039906
-22.471008,-47.426022,15.269508
-22.471008,-45.926022,15.269508
-22.471008,-44.426022,15.269508
-22.471008,-42.926022,15.269508
-22.471008,-41.426022,15.269508
-22.471008,-39.926022,15.269508
-22.471008,-48.145383,16.499109
-22.471008,-46.645383,16.499109
-22.471008,-45.145383,16.499109
-22.471008,-43.645383,16.499109
-22.471008,-42.145383,16.499109
-22.471008,-48.289089,17.728710
-22.471008,-46.789089,17.728710
-22.471008,-45.289089,17.728710
-22.471008,-43.789089,17.728710
-20.938144,-38.665690,0.524416
-20.938144,-37.165690,0.524416
-20.938144,-35.665690,0.524416
-20.938144,-34.165690,0.524416
-20.938144,-32.665690,0.524416
-20.938144,-31.165690,0.524416
-20.938144,-39.473098,1.830263
-20.938144,-37.973098,1.830263
-20.938144,-36.473098,1.830263
-20.938144,-34.973098,1.830263
-20.938144,-33.473098,1.830263
-20.938144,-31.973098,1.830263
-20.938144,-30.473098,1.830263
-20.938144,-39.897901,3.136111
-20.938144,-38.397901,3.136111
-20.938144,-36.897901,3.136111
-20.938144,-35.397901,3.136111
-20.938144,-33.897901,3.136111
-20.938144,-32.397901,3.136111
-20.938144,-30.897901,3.136111
-20.938144,-40.159108,4.441959
-20.938144,-38.659108,4.441959
-20.938144,-37.159108,4.441959
-20.938144,-35.659108,4.441959
-20.938144,-34.159108,4.441959
-20.938144,-32.659108,4.441959
-20.938144,-31.159108,4.441959
-20.938144,-29.659108,4.441959
-20.938144,-40.428351,5.747807
-20.938144,-38.928351,5.747807
-20.938144,-37.428351,5.747807
-20.938144,-35.928351,5.747807
-20.938144,-34.428351,5.747807
-20.938144,-32.928351,5.747807
-20.938144,-31.428351,5.747807
-20.938144,-29.928351,5.747807
-20.938144,-40.829883,7.053654
-20.938144,-39.329883,7.053654
-20.938144,-37.829883,7.053654
-20.938144,-36.329883,7.053654
-20.938144,-34.829883,7.053654
-20.938144,-33.329883,7.053654
-20.938144,-31.829883,7.053654
-20.938144,-30.329883,7.053654
-20.938144,-41.440577,8.359502
-20.938144,-39.940577,8.359502
-20.938144,-38.440577,8.359502
-20.938144,-36.940577,8.359502
-20.938144,-35.440577,8.359502
-20.938144,-33.940577,8.359502
-20.938144,-32.440577,8.359502
-20.938144,-30.940577,8.359502
-20.938144,-42.289932,9.665350
-20.938144,-40.789932,9.665350
-20.938144,-39.289932,9.665350
-20.938144,-37.789932,9.665350
-20.938144,-36.289932,9.665350
-20.938144,-34.789932,9.665350
-20.938144,-33.289932,9.665350
-20.938144,-31.789932,9.665350
-20.938144,-43.360063,10.971197
-20.938144,-41.860063,10.971197
-20.938144,-40.360063,10.971197
-20.938144,-38.860063,10.971197
-20.938144,-37.360063,10.971197
-20.938144,-35.860063,10.971197
-20.938144,-34.360063,10.971197
-20.938144,-32.860063,10.971197
-20.938144,-44.585711,12.277045
-20.938144,-43.085711,12.277045
-20.938144,-41.585711,12.277045
-20.938144,-40.085711,12.277045
-20.938144,-38.585711,12.277045
-20.938144,-37.085711,12.277045
-20.938144,-35.585711,12.277045
-20.938144,-34.085711,12.277045
-20.938144,-45.854237,13.582893
-20.938144,-44.354237,13.582893
-20.938144,-42.854237,13.582893
-20.938144,-41.354237,13.582893
-20.938144,-39.854237,13.582893
-20.938144,-38.354237,13.582893
-20.938144,-36.854237,13.582893
-20.938144,-47.005622,14.888740
-20.938144,-45.505622,14.888740
-20.938144,-44.005622,14.888740
-20.938144,-42.505622,14.888740
-20.938144,-41.005622,14.888740
-20.938144,-39.505622,14.888740
-20.938144,-38.005622,14.888740
-20.938144,-47.832470,16.194588
-20.938144,-46.332470,16.194588
-20.938144,-44.832470,16.194588
-20.938144,-43.332470,16.194588
-20.938144,-41.832470,16.194588
-20.938144,-40.332470,16.194588
-20.938144,-48.080008,17.500436
-20.938144,-46.580008,17.500436
-20.938144,-45.080008,17.500436
-20.938144,-43.580008,17.500436
-20.938144,-42.080008,17.500436
-20.938144,-47.446081,18.806284
-20.938144,-45.946081,18.806284
-20.938144,-44.446081,18.806284
-17.446621,-40.223693,0.535545
-17.446621,-38.723693,0.535545
-17.446621,-37.223693,0.535545
-17.446621,-35.723693,0.535545
-17.446621,-34.223693,0.535545
-17.446621,-32.723693,0.535545
-17.446621,-31.223693,0.535545
-17.446621,-40.888178,1.933402
-17.446621,-39.388178,1.933402
-17.446621,-37.888178,1.933402
-17.446621,-36.388178,1.933402
-17.446621,-34.888178,1.933402
-17.446621,-33.388178,1.933402
-17.446621,-31.888178,1.933402
-17.446621,-30.388178,1.933402
-17.446621,-41.097701,3.331258
-17.446621,-39.597701,3.331258
-17.446621,-38.097701,3.331258
-17.446621,-36.597701,3.331258
-17.446621,-35.097701,3.331258
-17.446621,-33.597701,3.331258
-17.446621,-32.097701,3.331258
-17.446621,-30.597701,3.331258
-17.446621,-41.117321,4.729115
-17.446621,-39.617321,4.729115
-17.446621,-38.117321,4.729115
-17.446621,-36.617321,4.729115
-17.446621,-35.117321,4.729115
-17.446621,-33.617321,4.729115
-17.446621,-32.117321,4.729115
-17.446621,-30.617321,4.729115
-17.446621,-29.117321,4.729115
-17.446621,-41.149887,6.126971
-17.446621,-39.649887,6.126971
-17.446621,-38.149887,6.126971
-17.446621,-36.649887,6.126971
-17.446621,-35.149887,6.126971
-17.446621,-33.649887,6.126971
-17.446621,-32.149887,6.126971
-17.446621,-30.649887,6.126971
-17.446621,-29.149887,6.126971
-17.446621,-41.336039,7.524827
-17.446621,-39.836039,7.524827
-17.446621,-38.336039,7.524827
-17.446621,-36.836039,7.524827
-17.446621,-35.336039,7.524827
-17.446621,-33.836039,7.524827
-17.446621,-32.336039,7.524827
-17.446621,-30.836039,7.524827
-17.446621,-29.336039,7.524827
-17.446621,-41.754206,8.922684
-17.446621,-40.254206,8.922684
-17.446621,-38.754206,8.922684
-17.446621,-37.254206,8.922684
-17.446621,-35.754206,8.922684
-17.446621,-34.254206,8.922684
-17.446621,-32.754206,8.922684
-17.446621,-31.254206,8.922684
-17.446621,-29.754206,8.922684
-17.446621,-42.420609,10.320540
-17.446621,-40.920609,10.320540
-17.446621,-39.420609,10.320540
-17.446621,-37.920609,10.320540
-17.446621,-36.420609,10.320540
-17.446621,-34.920609,10.320540
-17.446621,-33.420609,10.320540
-17.446621,-31.920609,10.320540
-17.446621,-43.289255,11.718396
-17.446621,-41.789255,11.718396
-17.446621,-40.289255,11.718396
-17.446621,-38.789255,11.718396
-17.446621,-37.289255,11.718396
-17.446621,-35.789255,11.718396
-17.446621,-34.289255,11.718396
-17.446621,-32.789255,11.718396
-17.446621,-44.251944,13.116253
-17.446621,-42.751944,13.116253
-17.446621,-41.251944,13.116253
-17.446621,-39.751944,13.116253
-17.446621,-38.251944,13.116253
-17.446621,-36.751944,13.116253
-17.446621,-35.251944,13.116253
-17.446621,-33.751944,13.116253
-17.446621,-45.138264,14.514109
-17.446621,-43.638264,14.514109
-17.446621,-42.138264,14.514109
-17.446621,-40.638264,14.514109
-17.446621,-39.138264,14.514109
-17.446621,-37.638264,14.514109
-17.446621,-36.138264,14.514109
-17.446621,-45.715596,15.911965
-17.446621,-44.215596,15.911965
-17.446621,-42.715596,15.911965
-17.446621,-41.215596,15.911965
-17.446621,-39.715596,15.911965
-17.446621,-38.215596,15.911965
-17.446621,-45.689106,17.309822
-17.446621,-44.189106,17.309822
-17.446621,-42.689106,17.309822
-17.446621,-41.189106,17.309822
-17.446621,-39.689106,17.309822
-17.446621,-44.701755,18.707678
-17.446621,-43.201755,18.707678
-17.446621,-41.701755,18.707678
-17.446621,-40.201755,18.707678
-17.446621,-42.334290,20.105534
-17.446621,-40.834290,20.105534
-16.169234,-40.853517,0.533346
-16.169234,-39.353517,0.533346
-16.169234,-37.853517,0.533346
-16.169234,-36.353517,0.533346
-16.169234,-34.853517,0.533346
-16.169234,-33.353517,0.533346
-16.169234,-31.853517,0.533346
-16.169234,-41.409808,1.924079
-16.169234,-39.909808,1.924079
-16.169234,-38.409808,1.924079
-16.169234,-36.909808,1.924079
-16.169234,-35.409808,1.924079
-16.169234,-33.909808,1.924079
-16.169234,-32.409808,1.924079
-16.169234,-30.909808,1.924079
-16.169234,-41.494454,3.314813
-16.169234,-39.994454,3.314813
-16.169234,-38.494454,3.314813
-16.169234,-36.994454,3.314813
-16.169234,-35.494454,3.314813
-16.169234,-33.994454,3.314813
-16.169234,-32.494454,3.314813
-16.169234,-30.994454,3.314813
-16.169234,-29.494454,3.314813
-16.169234,-41.370151,4.705546
-16.169234,-39.870151,4.705546
-16.169234,-38.370151,4.705546
-16.169234,-36.870151,4.705546
-16.169234,-35.370151,4.705546
-16.169234,-33.870151,4.705546
-16.169234,-32.370151,4.705546
-16.169234,-30.870151,4.705546
-16.169234,-29.370151,4.705546
-16.169234,-41.238638,6.096280
-16.169234,-39.738638,6.096280
-16.169234,-38.238638,6.096280
-16.169234,-36.738638,6.096280
-16.169234,-35.238638,6.096280
-16.169234,-33.738638,6.096280
-16.169234,-32.238638,6.096280
-16.169234,-30.738638,6.096280
-16.169234,-29.238638,6.096280
-16.169234,-41.240708,7.487013
-16.169234,-39.740708,7.487013
-16.169234,-38.240708,7.487013
-16.169234,-36.740708,7.487013
-16.169234,-35.240708,7.487013
-16.169234,-33.740708,7.487013
-16.169234,-32.240708,7.487013
-16.169234,-30.740708,7.487013
-16.169234,-29.240708,7.487013
-16.169234,-41.456198,8.877747
-16.169234,-39.956198,8.877747
-16.169234,-38.456198,8.877747
-16.169234,-36.956198,8.877747
-16.169234,-35.456198,8.877747
-16.169234,-33.956198,8.877747
-16.169234,-32.456198,8.877747
-16.169234,-30.956198,8.877747
-16.169234,-41.903995,10.268480
-16.169234,-40.403995,10.268480
-16.169234,-38.903995,10.268480
-16.169234,-37.403995,10.268480
-16.169234,-35.903995,10.268480
-16.169234,-34.403995,10.268480
-16.169234,-32.903995,10.268480
-16.169234,-31.403995,10.268480
-16.169234,-42.542033,11.659214
-16.169234,-41.042033,11.659214
-16.169234,-39.542033,11.659214
-16.169234,-38.042033,11.659214
-16.169234,-36.542033,11.659214
-16.169234,-35.042033,11.659214
-16.169234,-33.542033,11.659214
-16.169234,-32.042033,11.659214
-16.169234,-43.267297,13.049947
-16.169234,-41.767297,13.049947
-16.169234,-40.267297,13.049947
-16.169234,-38.767297,13.049947
-16.169234,-37.267297,13.049947
-16.169234,-35.767297,13.049947
-16.169234,-34.267297,13.049947
-16.169234,-43.915817,14.440681
-16.169234,-42.415817,14.440681
-16.169234,-40.915817,14.440681
-16.169234,-39.415817,14.440681
-16.169234,-37.915817,14.440681
-16.169234,-36.415817,14.440681
-16.169234,-34.915817,14.440681
-16.169234,-44.262672,15.831414
-16.169234,-42.762672,15.831414
-16.169234,-41.262672,15.831414
-16.169234,-39.762672,15.831414
-16.169234,-38.262672,15.831414
-16.169234,-36.762672,15.831414
-16.169234,-44.021991,17.222148
-16.169234,-42.521991,17.222148
-16.169234,-41.021991,17.222148
-16.169234,-39.521991,17.222148
-16.169234,-38.021991,17.222148
-16.169234,-42.846949,18.612881
-16.169234,-41.346949,18.612881
-16.169234,-39.846949,18.612881
-16.169234,-38.346949,18.612881
-16.169234,-40.329770,20.003615
-16.169234,-38.829770,20.003615
-15.232484,-41.310069,0.529652
-15.232484,-39.810069,0.529652
-15.232484,-38.310069,0.529652
-15.232484,-36.810069,0.529652
-15.232484,-35.310069,0.529652
-15.232484,-33.810069,0.529652
-15.232484,-32.310069,0.529652
-15.232484,-41.769388,1.897710
-15.232484,-40.269388,1.897710
-15.232484,-38.769388,1.897710
-15.232484,-37.269388,1.897710
-15.232484,-35.769388,1.897710
-15.232484,-34.269388,1.897710
-15.232484,-32.769388,1.897710
-15.232484,-31.269388,1.897710
-15.232484,-41.751409,3.265769
-15.232484,-40.251409,3.265769
-15.232484,-38.751409,3.265769
-15.232484,-37.251409,3.265769
-15.232484,-35.751409,3.265769
-15.232484,-34.251409,3.265769
-15.232484,-32.751409,3.265769
-15.232484,-31.251409,3.265769
-15.232484,-29.751409,3.265769
-15.232484,-41.508527,4.633827
-15.232484,-40.008527,4.633827
-15.232484,-38.508527,4.633827
-15.232484,-37.008527,4.633827
-15.232484,-35.508527,4.633827
-15.232484,-34.008527,4.633827
-15.232484,-32.508527,4.633827
-15.232484,-31.008527,4.633827
-15.232484,-29.508527,4.633827
-15.232484,-41.236063,6.001885
-15.232484,-39.736063,6.001885
-15.232484,-38.236063,6.001885
-15.232484,-36.736063,6.001885
-15.232484,-35.236063,6.001885
-15.232484,-33.736063,6.001885
-15.232484,-32.236063,6.001885
-15.232484,-30.736063,6.001885
-15.232484,-29.236063,6.001885
-15.232484,-41.072266,7.369944
-15.232484,-39.572266,7.369944
-15.232484,-38.072266,7.369944
-15.232484,-36.572266,7.369944
-15.232484,-35.072266,7.369944
-15.232484,-33.572266,7.369944
-15.232484,-32.072266,7.369944
-15.232484,-30.572266,7.369944
-15.232484,-41.098312,8.738002
-15.232484,-39.598312,8.738002
-15.232484,-38.098312,8.738002
-15.232484,-36.598312,8.738002
-15.232484,-35.098312,8.738002
-15.232484,-33.598312,8.738002
-15.232484,-32.098312,8.738002
-15.232484,-30.598312,8.738002
-15.232484,-41.338303,10.106061
-15.232484,-39.838303,10.106061
-15.232484,-38.338303,10.106061
-15.232484,-36.838303,10.106061
-15.232484,-35.338303,10.106061
-15.232484,-33.838303,10.106061
-15.232484,-32.338303,10.106061
-15.232484,-30.838303,10.106061
-15.232484,-41.759272,11.474119
-15.232484,-40.259272,11.474119
-15.232484,-38.759272,11.474119
-15.232484,-37.259272,11.474119
-15.232484,-35.759272,11.474119
-15.232484,-34.259272,11.474119
-15.232484,-32.759272,11.474119
-15.232484,-42.271174,12.842177
-15.232484,-40.771174,12.842177
-15.232484,-39.271174,12.842177
-15.232484,-37.771174,12.842177
-15.232484,-36.271174,12.842177
-15.232484,-34.771174,12.842177
-15.232484,-33.271174,12.842177
-15.232484,-42.726894,14.210236
-15.232484,-41.226894,14.210236
-15.232484,-39.726894,14.210236
-15.232484,-38.226894,14.210236
-15.232484,-36.726894,14.210236
-15.232484,-35.226894,14.210236
-15.232484,-42.922244,15.578294
-15.232484,-41.422244,15.578294
-15.232484,-39.922244,15.578294
-15.232484,-38.422244,15.578294
-15.232484,-36.922244,15.578294
-15.232484,-35.422244,15.578294
-15.232484,-42.595964,16.946352
-15.232484,-41.095964,16.946352
-15.232484,-39.595964,16.946352
-15.232484,-38.095964,16.946352
-15.232484,-36.595964,16.946352
-15.232484,-41.429719,18.314411
-15.232484,-39.929719,18.314411
-15.232484,-38.429719,18.314411
-15.232484,-39.048102,19.682469
-15.232484,-37.548102,19.682469
-14.380893,-41.709405,0.525042
-14.380893,-40.209405,0.525042
-14.380893,-38.709405,0.525042
-14.380893,-37.209405,0.525042
-14.380893,-35.709405,0.525042
-14.380893,-34.209405,0.525042
-14.380893,-32.709405,0.525042
-14.380893,-42.069872,1.858424
-14.380893,-40.569872,1.858424
-14.380893,-39.069872,1.858424
-14.380893,-37.569872,1.858424
-14.380893,-36.069872,1.858424
-14.380893,-34.569872,1.858424
-14.380893,-33.069872,1.858424
-14.380893,-31.569872,1.858424
-14.380893,-41.954591,3.191806
-14.380893,-40.454591,3.191806
-14.380893,-38.954591,3.191806
-14.380893,-37.454591,3.191806
-14.380893,-35.954591,3.191806
-14.380893,-34.454591,3.191806
-14.380893,-32.954591,3.191806
-14.380893,-31.454591,3.191806
-14.380893,-41.600081,4.525189
-14.380893,-40.100081,4.525189
-14.380893,-38.600081,4.525189
-14.380893,-37.100081,4.525189
-14.380893,-35.600081,4.525189
-14.380893,-34.100081,4.525189
-14.380893,-32.600081,4.525189
-14.380893,-31.100081,4.525189
-14.380893,-41.191358,5.858571
-14.380893,-39.691358,5.858571
-14.380893,-38.191358,5.858571
-14.380893,-36.691358,5.858571
-14.380893,-35.191358,5.858571
-14.380893,-33.691358,5.858571
-14.380893,-32.191358,5.858571
-14.380893,-30.691358,5.858571
-14.380893,-40.861934,7.191953
-14.380893,-39.361934,7.191953
-14.380893,-37.861934,7.191953
-14.380893,-36.361934,7.191953
-14.380893,-34.861934,7.191953
-14.380893,-33.361934,7.191953
-14.380893,-31.861934,7.191953
-14.380893,-30.361934,7.191953
-14.380893,-40.693820,8.525336
-14.380893,-39.193820,8.525336
-14.380893,-37.693820,8.525336
-14.380893,-36.193820,8.525336
-14.380893,-34.693820,8.525336
-14.380893,-33.193820,8.525336
-14.380893,-31.693820,8.525336
-14.380893,-30.193820,8.525336
-14.380893,-40.717525,9.858718
-14.380893,-39.217525,9.858718
-14.380893,-37.717525,9.858718
-14.380893,-36.217525,9.858718
-14.380893,-34.717525,9.858718
-14.380893,-33.217525,9.858718
-14.380893,-31.717525,9.858718
-14.380893,-30.217525,9.858718
-14.380893,-40.912052,11.192100
-14.380893,-39.412052,11.192100
-14.380893,-37.912052,11.192100
-14.380893,-36.412052,11.192100
-14.380893,-34.912052,11.192100
-14.380893,-33.412052,11.192100
-14.380893,-31.912052,11.192100
-14.380893,-41.204904,12.525483
-14.380893,-39.704904,12.525483
-14.380893,-38.204904,12.525483
-14.380893,-36.704904,12.525483
-14.380893,-35.204904,12.525483
-14.380893,-33.704904,12.525483
-14.380893,-32.204904,12.525483
-14.380893,-41.472082,13.858865
-14.380893,-39.972082,13.858865
-14.380893,-38.472082,13.858865
-14.380893,-36.972082,13.858865
-14.380893,-35.472082,13.858865
-14.380893,-33.972082,13.858865
-14.380893,-41.538082,15.192247
-14.380893,-40.038082,15.192247
-14.380893,-38.538082,15.192247
-14.380893,-37.038082,15.192247
-14.380893,-35.538082,15.192247
-14.380893,-41.175898,16.525630
-14.380893,-39.675898,16.525630
-14.380893,-38.175898,16.525630
-14.380893,-36.675898,16.525630
-14.380893,-40.107023,17.859012
-14.380893,-38.607023,17.859012
-14.380893,-37.107023,17.859012
-14.380893,-38.001446,19.192394
-12.677711,-42.420442,0.513742
-12.677711,-40.920442,0.513742
-12.677711,-39.420442,0.513742
-12.677711,-37.920442,0.513742
-12.677711,-36.420442,0.513742
-12.677711,-34.920442,0.513742
-12.677711,-33.420442,0.513742
-12.677711,-42.564905,1.734063
-12.677711,-41.064905,1.734063
-12.677711,-39.564905,1.734063
-12.677711,-38.064905,1.734063
-12.677711,-36.564905,1.734063
-12.677711,-35.064905,1.734063
-12.677711,-33.564905,1.734063
-12.677711,-32.064905,1.734063
-12.677711,-42.262597,2.954384
-12.677711,-40.762597,2.954384
-12.677711,-39.262597,2.954384
-12.677711,-37.762597,2.954384
-12.677711,-36.262597,2.954384
-12.677711,-34.762597,2.954384
-12.677711,-33.262597,2.954384
-12.677711,-31.762597,2.954384
-12.677711,-41.701178,4.174705
-12.677711,-40.201178,4.174705
-12.677711,-38.701178,4.174705
-12.677711,-37.201178,4.174705
-12.677711,-35.701178,4.174705
-12.677711,-34.201178,4.174705
-12.677711,-32.701178,4.174705
-12.677711,-31.201178,4.174705
-12.677711,-41.032171,5.395026
-12.677711,-39.532171,5.395026
-12.677711,-38.032171,5.395026
-12.677711,-36.532171,5.395026
-12.677711,-35.032171,5.395026
-12.677711,-33.532171,5.395026
-12.677711,-32.032171,5.395026
-12.677711,-30.532171,5.395026
-12.677711,-40.370970,6.615347
-12.677711,-38.870970,6.615347
-12.677711,-37.370970,6.615347
-12.677711,-35.870970,6.615347
-12.677711,-34.370970,6.615347
-12.677711,-32.870970,6.615347
-12.677711,-31.370970,6.615347
-12.677711,-39.796832,7.835668
-12.677711,-38.296832,7.835668
-12.677711,-36.796832,7.835668
-12.677711,-35.296832,7.835668
-12.677711,-33.796832,7.835668
-12.677711,-32.296832,7.835668
-12.677711,-30.796832,7.835668
-12.677711,-39.352883,9.055989
-12.677711,-37.852883,9.055989
-12.677711,-36.352883,9.055989
-12.677711,-34.852883,9.055989
-12.677711,-33.352883,9.055989
-12.677711,-31.852883,9.055989
-12.677711,-39.046113,10.276310
-12.677711,-37.546113,10.276310
-12.677711,-36.046113,10.276310
-12.677711,-34.546113,10.276310
-12.677711,-33.046113,10.276310
-12.677711,-31.546113,10.276310
-12.677711,-38.847383,11.496631
-12.677711,-37.347383,11.496631
-12.677711,-35.847383,11.496631
-12.677711,-34.347383,11.496631
-12.677711,-32.847383,11.496631
-12.677711,-38.691417,12.716952
-12.677711,-37.191417,12.716952
-12.677711,-35.691417,12.716952
-12.677711,-34.191417,12.716952
-12.677711,-32.691417,12.716952
-12.677711,-38.476807,13.937273
-12.677711,-36.976807,13.937273
-12.677711,-35.476807,13.937273
-12.677711,-33.976807,13.937273
-12.677711,-38.066013,15.157594
-12.677711,-36.566013,15.157594
-12.677711,-35.066013,15.157594
-12.677711,-37.285359,16.377915
-12.677711,-35.785359,16.377915
-12.677711,-35.925038,17.598236
-11.144847,-42.896554,0.504047
-11.144847,-41.396554,0.504047
-11.144847,-39.896554,0.504047
-11.144847,-38.396554,0.504047
-11.144847,-36.896554,0.504047
-11.144847,-35.396554,0.504047
-11.144847,-42.849694,1.568982
-11.144847,-41.349694,1.568982
-11.144847,-39.849694,1.568982
-11.144847,-38.349694,1.568982
-11.144847,-36.849694,1.568982
-11.144847,-35.349694,1.568982
-11.144847,-33.849694,1.568982
-11.144847,-42.419540,2.633917
-11.144847,-40.919540,2.633917
-11.144847,-39.419540,2.633917
-11.144847,-37.919540,2.633917
-11.144847,-36.419540,2.633917
-11.144847,-34.919540,2.633917
-11.144847,-33.419540,2.633917
-11.144847,-41.736176,3.698852
-11.144847,-40.236176,3.698852
-11.144847,-38.736176,3.698852
-11.144847,-37.236176,3.698852
-11.144847,-35.736176,3.698852
-11.144847,-34.236176,3.698852
-11.144847,-32.736176,3.698852
-11.144847,-40.908730,4.763787
-11.144847,-39.408730,4.763787
-11.144847,-37.908730,4.763787
-11.144847,-36.408730,4.763787
-11.144847,-34.908730,4.763787
-11.144847,-33.408730,4.763787
-11.144847,-31.908730,4.763787
-11.144847,-40.025375,5.828722
-11.144847,-38.525375,5.828722
-11.144847,-37.025375,5.828722
-11.144847,-35.525375,5.828722
-11.144847,-34.025375,5.828722
-11.144847,-32.525375,5.828722
-11.144847,-39.153327,6.893656
-11.144847,-37.653327,6.893656
-11.144847,-36.153327,6.893656
-11.144847,-34.653327,6.893656
-11.144847,-33.153327,6.893656
-11.144847,-31.653327,6.893656
-11.144847,-38.338849,7.958591
-11.144847,-36.838849,7.958591
-11.144847,-35.338849,7.958591
-11.144847,-33.838849,7.958591
-11.144847,-32.338849,7.958591
-11.144847,-37.607245,9.023526
-11.144847,-36.107245,9.023526
-11.144847,-34.607245,9.023526
-11.144847,-33.107245,9.023526
-11.144847,-31.607245,9.023526
-11.144847,-36.962865,10.088461
-11.144847,-35.462865,10.088461
-11.144847,-33.962865,10.088461
-11.144847,-32.462865,10.088461
-11.144847,-36.389103,11.153396
-11.144847,-34.889103,11.153396
-11.144847,-33.389103,11.153396
-11.144847,-35.848398,12.218331
-11.144847,-34.348398,12.218331
-11.144847,-32.848398,12.218331
-11.144847,-35.282231,13.283266
-11.144847,-33.782231,13.283266
-11.144847,-34.611129,14.348200
-11.144847,-34.180603,15.413135
-9.782301,-43.124465,0.499173
-9.782301,-41.624465,0.499173
-9.782301,-40.124465,0.499173
-9.782301,-38.624465,0.499173
-9.782301,-37.124465,0.499173
-9.782301,-42.939107,1.380977
-9.782301,-41.439107,1.380977
-9.782301,-39.939107,1.380977
-9.782301,-38.439107,1.380977
-9.782301,-36.939107,1.380977
-9.782301,-42.459019,2.262782
-9.782301,-40.959019,2.262782
-9.782301,-39.459019,2.262782
-9.782301,-37.959019,2.262782
-9.782301,-36.459019,2.262782
-9.782301,-34.959019,2.262782
-9.782301,-41.761476,3.144587
-9.782301,-40.261476,3.144587
-9.782301,-38.761476,3.144587
-9.782301,-37.261476,3.144587
-9.782301,-35.761476,3.144587
-9.782301,-40.913903,4.026391
-9.782301,-39.413903,4.026391
-9.782301,-37.913903,4.026391
-9.782301,-36.413903,4.026391
-9.782301,-34.913903,4.026391
-9.782301,-39.973875,4.908196
-9.782301,-38.473875,4.908196
-9.782301,-36.973875,4.908196
-9.782301,-35.473875,4.908196
-9.782301,-33.973875,4.908196
-9.782301,-38.989112,5.790000
-9.782301,-37.489112,5.790000
-9.782301,-35.989112,5.790000
-9.782301,-34.489112,5.790000
-9.782301,-32.989112,5.790000
-9.782301,-37.997486,6.671805
-9.782301,-36.497486,6.671805
-9.782301,-34.997486,6.671805
-9.782301,-33.497486,6.671805
-9.782301,-37.027015,7.553610
-9.782301,-35.527015,7.553610
-9.782301,-34.027015,7.553610
-9.782301,-32.527015,7.553610
-9.782301,-36.095867,8.435414
-9.782301,-34.595867,8.435414
-9.782301,-33.095867,8.435414
-9.782301,-35.212358,9.317219
-9.782301,-33.712358,9.317219
-9.782301,-34.374953,10.199023
-9.782301,-32.874953,10.199023
-9.782301,-33.572266,11.080828
-9.782301,-33.144452,11.962633
-9.782301,-33.487347,12.844437
-9.782301,-31.987347,12.844437
-10.463574,-43.037532,0.500946
-10.463574,-41.537532,0.500946
-10.463574,-40.037532,0.500946
-10.463574,-38.537532,0.500946
-10.463574,-37.037532,0.500946
-10.463574,-35.537532,0.500946
-10.463574,-42.915742,1.479696
-10.463574,-41.415742,1.479696
-10.463574,-39.915742,1.479696
-10.463574,-38.415742,1.479696
-10.463574,-36.915742,1.479696
-10.463574,-35.415742,1.479696
-10.463574,-42.451357,2.458447
-10.463574,-40.951357,2.458447
-10.463574,-39.451357,2.458447
-10.463574,-37.951357,2.458447
-10.463574,-36.451357,2.458447
-10.463574,-34.951357,2.458447
-10.463574,-41.747591,3.437198
-10.463574,-40.247591,3.437198
-10.463574,-38.747591,3.437198
-10.463574,-37.247591,3.437198
-10.463574,-35.747591,3.437198
-10.463574,-34.247591,3.437198
-10.463574,-40.892708,4.415948
-10.463574,-39.392708,4.415948
-10.463574,-37.892708,4.415948
-10.463574,-36.392708,4.415948
-10.463574,-34.892708,4.415948
-10.463574,-33.392708,4.415948
-10.463574,-39.960019,5.394699
-10.463574,-38.460019,5.394699
-10.463574,-36.960019,5.394699
-10.463574,-35.460019,5.394699
-10.463574,-33.960019,5.394699
-10.463574,-32.460019,5.394699
-10.463574,-39.007884,6.373450
-10.463574,-37.507884,6.373450
-10.463574,-36.007884,6.373450
-10.463574,-34.507884,6.373450
-10.463574,-33.007884,6.373450
-10.463574,-38.079710,7.352200
-10.463574,-36.579710,7.352200
-10.463574,-35.079710,7.352200
-10.463574,-33.579710,7.352200
-10.463574,-32.079710,7.352200
-10.463574,-37.203951,8.330951
-10.463574,-35.703951,8.330951
-10.463574,-34.203951,8.330951
-10.463574,-32.703951,8.330951
-10.463574,-36.394113,9.309702
-10.463574,-34.894113,9.309702
-10.463574,-33.394113,9.309702
-10.463574,-31.894113,9.309702
-10.463574,-35.648745,10.288453
-10.463574,-34.148745,10.288453
-10.463574,-32.648745,10.288453
-10.463574,-34.951447,11.267203
-10.463574,-33.451447,11.267203
-10.463574,-34.270867,12.245954
-10.463574,-33.560699,13.224705
-10.463574,-33.762969,14.203455
-10.633893,-43.007047,0.501614
-10.633893,-41.507047,0.501614
-10.633893,-40.007047,0.501614
-10.633893,-38.507047,0.501614
-10.633893,-37.007047,0.501614
-10.633893,-35.507047,0.501614
-10.633893,-42.903078,1.502915
-10.633893,-41.403078,1.502915
-10.633893,-39.903078,1.502915
-10.633893,-38.403078,1.502915
-10.633893,-36.903078,1.502915
-10.633893,-35.403078,1.502915
-10.633893,-42.445636,2.504217
-10.633893,-40.945636,2.504217
-10.633893,-39.445636,2.504217
-10.633893,-37.945636,2.504217
-10.633893,-36.445636,2.504217
-10.633893,-34.945636,2.504217
-10.633893,-41.744615,3.505518
-10.633893,-40.244615,3.505518
-10.633893,-38.744615,3.505518
-10.633893,-37.244615,3.505518
-10.633893,-35.744615,3.505518
-10.633893,-34.244615,3.505518
-10.633893,-40.893535,4.506820
-10.633893,-39.393535,4.506820
-10.633893,-37.893535,4.506820
-10.633893,-36.393535,4.506820
-10.633893,-34.893535,4.506820
-10.633893,-33.393535,4.506820
-10.633893,-39.969534,5.508121
-10.633893,-38.469534,5.508121
-10.633893,-36.969534,5.508121
-10.633893,-35.469534,5.508121
-10.633893,-33.969534,5.508121
-10.633893,-32.469534,5.508121
-10.633893,-39.033374,6.509423
-10.633893,-37.533374,6.509423
-10.633893,-36.033374,6.509423
-10.633893,-34.533374,6.509423
-10.633893,-33.033374,6.509423
-10.633893,-38.129438,7.510724
-10.633893,-36.629438,7.510724
-10.633893,-35.129438,7.510724
-10.633893,-33.629438,7.510724
-10.633893,-32.129438,7.510724
-10.633893,-37.285731,8.512026
-10.633893,-35.785731,8.512026
-10.633893,-34.285731,8.512026
-10.633893,-32.785731,8.512026
-10.633893,-36.513877,9.513327
-10.633893,-35.013877,9.513327
-10.633893,-33.513877,9.513327
-10.633893,-32.013877,9.513327
-10.633893,-35.809127,10.514629
-10.633893,-34.309127,10.514629
-10.633893,-32.809127,10.514629
-10.633893,-35.150347,11.515930
-10.633893,-33.650347,11.515930
-10.633893,-34.500031,12.517232
-10.633893,-33.000031,12.517232
-10.633893,-33.804290,13.518534
-10.633893,-33.858310,14.519835
-43.931104,-44.518592,3.771954
-43.931104,-44.721740,4.304985
-43.931104,-44.870819,4.838017
-43.931104,-43.370819,4.838017
-43.931104,-44.974456,5.371048
-43.931104,-43.474456,5.371048
-43.931104,-45.039962,5.904080
-43.931104,-43.539962,5.904080
-43.931104,-45.073333,6.437111
-43.931104,-43.573333,6.437111
-43.931104,-45.079250,6.970143
-43.931104,-43.579250,6.970143
-43.931104,-42.079250,6.970143
-43.931104,-45.061078,7.503174
-43.931104,-43.561078,7.503174
-43.931104,-42.061078,7.503174
-43.931104,-45.020868,8.036206
-43.931104,-43.520868,8.036206
-43.931104,-42.020868,8.036206
-43.931104,-44.959354,8.569237
-43.931104,-43.459354,8.569237
-43.931104,-41.959354,8.569237
-43.931104,-44.875956,9.102269
-43.931104,-43.375956,9.102269
-43.931104,-44.768778,9.635301
-43.931104,-43.268778,9.635301
-43.931104,-44.634609,10.168332
-43.931104,-43.134609,10.168332
-43.931104,-44.468922,10.701364
-43.931104,-42.968922,10.701364
-43.931104,-44.265876,11.234395
-42.568558,-43.963276,3.083693
-42.568558,-44.218488,3.684858
-42.568558,-42.718488,3.684858
-42.568558,-44.399137,4.286022
-42.568558,-42.899137,4.286022
-42.568558,-44.519768,4.887187
-42.568558,-43.019768,4.887187
-42.568558,-44.592797,5.488352
-42.568558,-43.092797,5.488352
-42.568558,-41.592797,5.488352
-42.568558,-44.628512,6.089517
-42.568558,-43.128512,6.089517
-42.568558,-41.628512,6.089517
-42.568558,-44.635076,6.690682
-42.568558,-43.135076,6.690682
-42.568558,-41.635076,6.690682
-42.568558,-44.618519,7.291846
-42.568558,-43.118519,7.291846
-42.568558,-41.618519,7.291846
-42.568558,-44.582748,7.893011
-42.568558,-43.082748,7.893011
-42.568558,-41.582748,7.893011
-42.568558,-44.529537,8.494176
-42.568558,-43.029537,8.494176
-42.568558,-41.529537,8.494176
-42.568558,-44.458537,9.095341
-42.568558,-42.958537,9.095341
-42.568558,-41.458537,9.095341
-42.568558,-44.367266,9.696506
-42.568558,-42.867266,9.696506
-42.568558,-41.367266,9.696506
-42.568558,-44.251118,10.297670
-42.568558,-42.751118,10.297670
-42.568558,-44.103356,10.898835
-42.568558,-42.603356,10.898835
-42.568558,-43.915117,11.500000
-39.587989,-42.432061,1.949514
-39.587989,-40.932061,1.949514
-39.587989,-42.772482,2.602239
-39.587989,-41.272482,2.602239
-39.587989,-43.008145,3.254965
-39.587989,-41.508145,3.254965
-39.587989,-40.008145,3.254965
-39.587989,-43.162720,3.907691
-39.587989,-41.662720,3.907691
-39.587989,-40.162720,3.907691
-39.587989,-43.256922,4.560416
-39.587989,-41.756922,4.560416
-39.587989,-40.256922,4.560416
-39.587989,-43.308508,5.213142
-39.587989,-41.808508,5.213142
-39.587989,-40.308508,5.213142
-39.587989,-43.332276,5.865868
-39.587989,-41.832276,5.865868
-39.587989,-40.332276,5.865868
-39.587989,-38.832276,5.865868
-39.587989,-43.340068,6.518593
-39.587989,-41.840068,6.518593
-39.587989,-40.340068,6.518593
-39.587989,-38.840068,6.518593
-39.587989,-43.340768,7.171319
-39.587989,-41.840768,7.171319
-39.587989,-40.340768,7.171319
-39.587989,-38.840768,7.171319
-39.587989,-43.340301,7.824044
-39.587989,-41.840301,7.824044
-39.587989,-40.340301,7.824044
-39.587989,-38.840301,7.824044
-39.587989,-43.341638,8.476770
-39.587989,-41.841638,8.476770
-39.587989,-40.341638,8.476770
-39.587989,-38.841638,8.476770
-39.587989,-43.344788,9.129496
-39.587989,-41.844788,9.129496
-39.587989,-40.344788,9.129496
-39.587989,-43.346806,9.782221
-39.587989,-41.846806,9.782221
-39.587989,-40.346806,9.782221
-39.587989,-43.341788,10.434947
-39.587989,-41.841788,10.434947
-39.587989,-40.341788,10.434947
-39.587989,-43.320872,11.087673
-39.587989,-41.820872,11.087673
-36.351943,-40.597331,1.178763
-36.351943,-39.097331,1.178763
-36.351943,-41.003768,1.839308
-36.351943,-39.503768,1.839308
-36.351943,-38.003768,1.839308
-36.351943,-41.288781,2.499853
-36.351943,-39.788781,2.499853
-36.351943,-38.288781,2.499853
-36.351943,-41.480764,3.160399
-36.351943,-39.980764,3.160399
-36.351943,-38.480764,3.160399
-36.351943,-41.605012,3.820944
-36.351943,-40.105012,3.820944
-36.351943,-38.605012,3.820944
-36.351943,-41.683716,4.481489
-36.351943,-40.183716,4.481489
-36.351943,-38.683716,4.481489
-36.351943,-37.183716,4.481489
-36.351943,-41.735967,5.142034
-36.351943,-40.235967,5.142034
-36.351943,-38.735967,5.142034
-36.351943,-37.235967,5.142034
-36.351943,-41.777753,5.802579
-36.351943,-40.277753,5.802579
-36.351943,-38.777753,5.802579
-36.351943,-37.277753,5.802579
-36.351943,-41.821960,6.463125
-36.351943,-40.321960,6.463125
-36.351943,-38.821960,6.463125
-36.351943,-37.321960,6.463125
-36.351943,-41.878373,7.123670
-36.351943,-40.378373,7.123670
-36.351943,-38.878373,7.123670
-36.351943,-37.378373,7.123670
-36.351943,-41.953674,7.784215
-36.351943,-40.453674,7.784215
-36.351943,-38.953674,7.784215
-36.351943,-37.453674,7.784215
-36.351943,-42.051445,8.444760
-36.351943,-40.551445,8.444760
-36.351943,-39.051445,8.444760
-36.351943,-37.551445,8.444760
-36.351943,-42.172165,9.105305
-36.351943,-40.672165,9.105305
-36.351943,-39.172165,9.105305
-36.351943,-37.672165,9.105305
-36.351943,-42.313211,9.765851
-36.351943,-40.813211,9.765851
-36.351943,-39.313211,9.765851
-36.351943,-42.468857,10.426396
-36.351943,-40.968857,10.426396
-36.351943,-39.468857,10.426396
-33.456533,-39.121581,0.786089
-33.456533,-37.621581,0.786089
-33.456533,-39.589975,1.480709
-33.456533,-38.089975,1.480709
-33.456533,-36.589975,1.480709
-33.456533,-39.919086,2.175328
-33.456533,-38.419086,2.175328
-33.456533,-36.919086,2.175328
-33.456533,-40.144113,2.869947
-33.456533,-38.644113,2.869947
-33.456533,-37.144113,2.869947
-33.456533,-35.644113,2.869947
-33.456533,-40.296458,3.564566
-33.456533,-38.796458,3.564566
-33.456533,-37.296458,3.564566
-33.456533,-35.796458,3.564566
-33.456533,-40.403731,4.259185
-33.456533,-38.903731,4.259185
-33.456533,-37.403731,4.259185
-33.456533,-35.903731,4.259185
-33.456533,-40.489751,4.953804
-33.456533,-38.989751,4.953804
-33.456533,-37.489751,4.953804
-33.456533,-35.989751,4.953804
-33.456533,-40.574540,5.648423
-33.456533,-39.074540,5.648423
-33.456533,-37.574540,5.648423
-33.456533,-36.074540,5.648423
-33.456533,-40.674331,6.343042
-33.456533,-39.174331,6.343042
-33.456533,-37.674331,6.343042
-33.456533,-36.174331,6.343042
-33.456533,-40.801561,7.037661
-33.456533,-39.301561,7.037661
-33.456533,-37.801561,7.037661
-33.456533,-36.301561,7.037661
-33.456533,-40.964875,7.732280
-33.456533,-39.464875,7.732280
-33.456533,-37.964875,7.732280
-33.456533,-36.464875,7.732280
-33.456533,-41.169124,8.426900
-33.456533,-39.669124,8.426900
-33.456533,-38.169124,8.426900
-33.456533,-36.669124,8.426900
-33.456533,-41.415367,9.121519
-33.456533,-39.915367,9.121519
-33.456533,-38.415367,9.121519
-33.456533,-36.915367,9.121519
-33.456533,-41.700869,9.816138
-33.456533,-40.200869,9.816138
-33.456533,-38.700869,9.816138
-33.456533,-37.200869,9.816138
-33.456533,-42.019102,10.510757
-33.456533,-40.519102,10.510757
-33.456533,-39.019102,10.510757
-33.456533,-37.519102,10.510757
-30.646283,-38.069984,0.590240
-30.646283,-36.569984,0.590240
-30.646283,-35.069984,0.590240
-30.646283,-38.619802,1.369508
-30.646283,-37.119802,1.369508
-30.646283,-35.619802,1.369508
-30.646283,-38.998371,2.148777
-30.646283,-37.498371,2.148777
-30.646283,-35.998371,2.148777
-30.646283,-34.498371,2.148777
-30.646283,-39.256347,2.928046
-30.646283,-37.756347,2.928046
-30.646283,-36.256347,2.928046
-30.646283,-34.756347,2.928046
-30.646283,-39.438372,3.707314
-30.646283,-37.938372,3.707314
-30.646283,-36.438372,3.707314
-30.646283,-34.938372,3.707314
-30.646283,-39.583084,4.486583
-30.646283,-38.083084,4.486583
-30.646283,-36.583084,4.486583
-30.646283,-35.083084,4.486583
-30.646283,-33.583084,4.486583
-30.646283,-39.723111,5.265851
-30.646283,-38.223111,5.265851
-30.646283,-36.723111,5.265851
-30.646283,-35.223111,5.265851
-30.646283,-33.723111,5.265851
-30.646283,-39.885072,6.045120
-30.646283,-38.385072,6.045120
-30.646283,-36.885072,6.045120
-30.646283,-35.385072,6.045120
-30.646283,-33.885072,6.045120
-30.646283,-40.089578,6.824388
-30.646283,-38.589578,6.824388
-30.646283,-37.089578,6.824388
-30.646283,-35.589578,6.824388
-30.646283,-34.089578,6.824388
-30.646283,-40.351232,7.603657
-30.646283,-38.851232,7.603657
-30.646283,-37.351232,7.603657
-30.646283,-35.851232,7.603657
-30.646283,-34.351232,7.603657
-30.646283,-40.678629,8.382926
-30.646283,-39.178629,8.382926
-30.646283,-37.678629,8.382926
-30.646283,-36.178629,8.382926
-30.646283,-34.678629,8.382926
-30.646283,-41.074355,9.162194
-30.646283,-39.574355,9.162194
-30.646283,-38.074355,9.162194
-30.646283,-36.574355,9.162194
-30.646283,-35.074355,9.162194
-30.646283,-41.534986,9.941463
-30.646283,-40.034986,9.941463
-30.646283,-38.534986,9.941463
-30.646283,-37.034986,9.941463
-30.646283,-42.051092,10.720731
-30.646283,-40.551092,10.720731
-30.646283,-39.051092,10.720731
-30.646283,-37.551092,10.720731
-30.646283,-42.607234,11.500000
-30.646283,-41.107234,11.500000
-30.646283,-39.607234,11.500000
-30.646283,-38.107234,11.500000
-27.325077,-37.506794,0.506472
-27.325077,-36.006794,0.506472
-27.325077,-34.506794,0.506472
-27.325077,-33.006794,0.506472
-27.325077,-38.178000,1.449365
-27.325077,-36.678000,1.449365
-27.325077,-35.178000,1.449365
-27.325077,-33.678000,1.449365
-27.325077,-38.617619,2.392257
-27.325077,-37.117619,2.392257
-27.325077,-35.617619,2.392257
-27.325077,-34.117619,2.392257
-27.325077,-32.617619,2.392257
-27.325077,-38.914063,3.335150
-27.325077,-37.414063,3.335150
-27.325077,-35.914063,3.335150
-27.325077,-34.414063,3.335150
-27.325077,-32.914063,3.335150
-27.325077,-39.142868,4.278042
-27.325077,-37.642868,4.278042
-27.325077,-36.142868,4.278042
-27.325077,-34.642868,4.278042
-27.325077,-33.142868,4.278042
-27.325077,-39.366688,5.220935
-27.325077,-37.866688,5.220935
-27.325077,-36.366688,5.220935
-27.325077,-34.866688,5.220935
-27.325077,-33.366688,5.220935
-27.325077,-31.866688,5.220935
-27.325077,-39.635302,6.163828
-27.325077,-38.135302,6.163828
-27.325077,-36.635302,6.163828
-27.325077,-35.135302,6.163828
-27.325077,-33.635302,6.163828
-27.325077,-32.135302,6.163828
-27.325077,-39.985609,7.106720
-27.325077,-38.485609,7.106720
-27.325077,-36.985609,7.106720
-27.325077,-35.485609,7.106720
-27.325077,-33.985609,7.106720
-27.325077,-32.485609,7.106720
-27.325077,-40.441629,8.049613
-27.325077,-38.941629,8.049613
-27.325077,-37.441629,8.049613
-27.325077,-35.941629,8.049613
-27.325077,-34.441629,8.049613
-27.325077,-32.941629,8.049613
-27.325077,-41.014506,8.992506
-27.325077,-39.514506,8.992506
-27.325077,-38.014506,8.992506
-27.325077,-36.514506,8.992506
-27.325077,-35.014506,8.992506
-27.325077,-33.514506,8.992506
-27.325077,-41.702503,9.935398
-27.325077,-40.202503,9.935398
-27.325077,-38.702503,9.935398
-27.325077,-37.202503,9.935398
-27.325077,-35.702503,9.935398
-27.325077,-34.202503,9.935398
-27.325077,-42.491007,10.878291
-27.325077,-40.991007,10.878291
-27.325077,-39.491007,10.878291
-27.325077,-37.991007,10.878291
-27.325077,-36.491007,10.878291
-27.325077,-43.352526,11.821184
-27.325077,-41.852526,11.821184
-27.325077,-40.352526,11.821184
-27.325077,-38.852526,11.821184
-27.325077,-37.352526,11.821184
-27.325077,-44.246688,12.764076
-27.325077,-42.746688,12.764076
-27.325077,-41.246688,12.764076
-27.325077,-39.746688,12.764076
-27.325077,-38.246688,12.764076
-27.325077,-45.120244,13.706969
-27.325077,-43.620244,13.706969
-27.325077,-42.120244,13.706969
-27.325077,-40.620244,13.706969
-25.621896,-37.536763,0.499594
-25.621896,-36.036763,0.499594
-25.621896,-34.536763,0.499594
-25.621896,-33.036763,0.499594
-25.621896,-38.269781,1.543296
-25.621896,-36.769781,1.543296
-25.621896,-35.269781,1.543296
-25.621896,-33.769781,1.543296
-25.621896,-32.269781,1.543296
-25.621896,-38.732955,2.586999
-25.621896,-37.232955,2.586999
-25.621896,-35.732955,2.586999
-25.621896,-34.232955,2.586999
-25.621896,-32.732955,2.586999
-25.621896,-39.044143,3.630702
-25.621896,-37.544143,3.630702
-25.621896,-36.044143,3.630702
-25.621896,-34.544143,3.630702
-25.621896,-33.044143,3.630702
-25.621896,-31.544143,3.630702
-25.621896,-39.301868,4.674405
-25.621896,-37.801868,4.674405
-25.621896,-36.301868,4.674405
