30.015507,-27.372257,0.505607
30.015507,-25.872257,0.505607
30.015507,-24.372257,0.505607
30.015507,-22.872257,0.505607
30.015507,-21.372257,0.505607
30.015507,-28.157278,1.657395
30.015507,-26.657278,1.657395
30.015507,-25.157278,1.657395
30.015507,-23.657278,1.657395
30.015507,-22.157278,1.657395
30.015507,-20.657278,1.657395
30.015507,-28.629589,2.809183
30.015507,-27.129589,2.809183
30.015507,-25.629589,2.809183
30.015507,-24.129589,2.809183
30.015507,-22.629589,2.809183
30.015507,-21.129589,2.809183
30.015507,-28.944274,3.960971
30.015507,-27.444274,3.960971
30.015507,-25.944274,3.960971
30.015507,-24.444274,3.960971
30.015507,-22.944274,3.960971
30.015507,-21.444274,3.960971
30.015507,-19.944274,3.960971
30.015507,-29.227745,5.112759
30.015507,-27.727745,5.112759
30.015507,-26.227745,5.112759
30.015507,-24.727745,5.112759
30.015507,-23.227745,5.112759
30.015507,-21.727745,5.112759
30.015507,-20.227745,5.112759
30.015507,-29.577735,6.264547
30.015507,-28.077735,6.264547
30.015507,-26.577735,6.264547
30.015507,-25.077735,6.264547
30.015507,-23.577735,6.264547
30.015507,-22.077735,6.264547
30.015507,-20.577735,6.264547
30.015507,-30.063306,7.416334
30.015507,-28.563306,7.416334
30.015507,-27.063306,7.416334
30.015507,-25.563306,7.416334
30.015507,-24.063306,7.416334
30.015507,-22.563306,7.416334
30.015507,-21.063306,7.416334
30.015507,-30.724843,8.568122
30.015507,-29.224843,8.568122
30.015507,-27.724843,8.568122
30.015507,-26.224843,8.568122
30.015507,-24.724843,8.568122
30.015507,-23.224843,8.568122
30.015507,-21.724843,8.568122
30.015507,-31.574058,9.719910
30.015507,-30.074058,9.719910
30.015507,-28.574058,9.719910
30.015507,-27.074058,9.719910
30.015507,-25.574058,9.719910
30.015507,-24.074058,9.719910
30.015507,-22.574058,9.719910
30.015507,-32.593987,10.871698
30.015507,-31.093987,10.871698
30.015507,-29.593987,10.871698
30.015507,-28.093987,10.871698
30.015507,-26.593987,10.871698
30.015507,-25.093987,10.871698
30.015507,-23.593987,10.871698
30.015507,-33.738991,12.023486
30.015507,-32.238991,12.023486
30.015507,-30.738991,12.023486
30.015507,-29.238991,12.023486
30.015507,-27.738991,12.023486
30.015507,-26.238991,12.023486
30.015507,-24.738991,12.023486
30.015507,-34.934756,13.175274
30.015507,-33.434756,13.175274
30.015507,-31.934756,13.175274
30.015507,-30.434756,13.175274
30.015507,-28.934756,13.175274
30.015507,-27.434756,13.175274
30.015507,-36.078295,14.327061
30.015507,-34.578295,14.327061
30.015507,-33.078295,14.327061
30.015507,-31.578295,14.327061
30.015507,-30.078295,14.327061
30.015507,-28.578295,14.327061
30.015507,-37.037943,15.478849
30.015507,-35.537943,15.478849
30.015507,-34.037943,15.478849
30.015507,-32.537943,15.478849
30.015507,-31.037943,15.478849
30.015507,-37.653364,16.630637
30.015507,-36.153364,16.630637
30.015507,-34.653364,16.630637
30.015507,-33.153364,16.630637
29.845187,-27.408855,0.506582
29.845187,-25.908855,0.506582
29.845187,-24.408855,0.506582
29.845187,-22.908855,0.506582
29.845187,-21.408855,0.506582
29.845187,-28.197682,1.668434
29.845187,-26.697682,1.668434
29.845187,-25.197682,1.668434
29.845187,-23.697682,1.668434
29.845187,-22.197682,1.668434
29.845187,-20.697682,1.668434
29.845187,-28.669651,2.830286
29.845187,-27.169651,2.830286
29.845187,-25.669651,2.830286
29.845187,-24.169651,2.830286
29.845187,-22.669651,2.830286
29.845187,-21.169651,2.830286
29.845187,-28.983624,3.992138
29.845187,-27.483624,3.992138
29.845187,-25.983624,3.992138
29.845187,-24.483624,3.992138
29.845187,-22.983624,3.992138
29.845187,-21.483624,3.992138
29.845187,-19.983624,3.992138
29.845187,-29.268770,5.153990
29.845187,-27.768770,5.153990
29.845187,-26.268770,5.153990
29.845187,-24.768770,5.153990
29.845187,-23.268770,5.153990
29.845187,-21.768770,5.153990
29.845187,-20.268770,5.153990
29.845187,-29.624570,6.315842
29.845187,-28.124570,6.315842
29.845187,-26.624570,6.315842
29.845187,-25.124570,6.315842
29.845187,-23.624570,6.315842
29.845187,-22.124570,6.315842
29.845187,-20.624570,6.315842
29.845187,-30.120815,7.477694
29.845187,-28.620815,7.477694
29.845187,-27.120815,7.477694
29.845187,-25.620815,7.477694
29.845187,-24.120815,7.477694
29.845187,-22.620815,7.477694
29.845187,-21.120815,7.477694
29.845187,-30.797604,8.639546
29.845187,-29.297604,8.639546
29.845187,-27.797604,8.639546
29.845187,-26.297604,8.639546
29.845187,-24.797604,8.639546
29.845187,-23.297604,8.639546
29.845187,-21.797604,8.639546
29.845187,-31.665346,9.801398
29.845187,-30.165346,9.801398
29.845187,-28.665346,9.801398
29.845187,-27.165346,9.801398
29.845187,-25.665346,9.801398
29.845187,-24.165346,9.801398
29.845187,-22.665346,9.801398
29.845187,-32.704762,10.963250
29.845187,-31.204762,10.963250
29.845187,-29.704762,10.963250
29.845187,-28.204762,10.963250
29.845187,-26.704762,10.963250
29.845187,-25.204762,10.963250
29.845187,-23.704762,10.963250
29.845187,-33.866880,12.125102
29.845187,-32.366880,12.125102
29.845187,-30.866880,12.125102
29.845187,-29.366880,12.125102
29.845187,-27.866880,12.125102
29.845187,-26.366880,12.125102
29.845187,-24.866880,12.125102
29.845187,-35.073040,13.286954
29.845187,-33.573040,13.286954
29.845187,-32.073040,13.286954
29.845187,-30.573040,13.286954
29.845187,-29.073040,13.286954
29.845187,-27.573040,13.286954
29.845187,-36.214889,14.448806
29.845187,-34.714889,14.448806
29.845187,-33.214889,14.448806
29.845187,-31.714889,14.448806
29.845187,-30.214889,14.448806
29.845187,-28.714889,14.448806
29.845187,-37.154386,15.610658
29.845187,-35.654386,15.610658
29.845187,-34.154386,15.610658
29.845187,-32.654386,15.610658
29.845187,-31.154386,15.610658
29.845187,-37.723799,16.772510
29.845187,-36.223799,16.772510
29.845187,-34.723799,16.772510
29.845187,-33.223799,16.772510
28.652947,-27.718125,0.514291
28.652947,-26.218125,0.514291
28.652947,-24.718125,0.514291
28.652947,-23.218125,0.514291
28.652947,-21.718125,0.514291
28.652947,-28.525913,1.743892
28.652947,-27.025913,1.743892
28.652947,-25.525913,1.743892
28.652947,-24.025913,1.743892
28.652947,-22.525913,1.743892
28.652947,-21.025913,1.743892
28.652947,-28.987800,2.973494
28.652947,-27.487800,2.973494
28.652947,-25.987800,2.973494
28.652947,-24.487800,2.973494
28.652947,-22.987800,2.973494
28.652947,-21.487800,2.973494
28.652947,-19.987800,2.973494
28.652947,-29.289486,4.203095
28.652947,-27.789486,4.203095
28.652947,-26.289486,4.203095
28.652947,-24.789486,4.203095
28.652947,-23.289486,4.203095
28.652947,-21.789486,4.203095
28.652947,-20.289486,4.203095
28.652947,-29.579428,5.432697
28.652947,-28.079428,5.432697
28.652947,-26.579428,5.432697
28.652947,-25.079428,5.432697
28.652947,-23.579428,5.432697
28.652947,-22.079428,5.432697
28.652947,-20.579428,5.432697
28.652947,-29.968837,6.662298
28.652947,-28.468837,6.662298
28.652947,-26.968837,6.662298
28.652947,-25.468837,6.662298
28.652947,-23.968837,6.662298
28.652947,-22.468837,6.662298
28.652947,-20.968837,6.662298
28.652947,-30.531681,7.891899
28.652947,-29.031681,7.891899
28.652947,-27.531681,7.891899
28.652947,-26.031681,7.891899
28.652947,-24.531681,7.891899
28.652947,-23.031681,7.891899
28.652947,-21.531681,7.891899
28.652947,-20.031681,7.891899
28.652947,-31.304680,9.121501
28.652947,-29.804680,9.121501
28.652947,-28.304680,9.121501
28.652947,-26.804680,9.121501
28.652947,-25.304680,9.121501
28.652947,-23.804680,9.121501
28.652947,-22.304680,9.121501
28.652947,-20.804680,9.121501
28.652947,-32.287311,10.351102
28.652947,-30.787311,10.351102
28.652947,-29.287311,10.351102
28.652947,-27.787311,10.351102
28.652947,-26.287311,10.351102
28.652947,-24.787311,10.351102
28.652947,-23.287311,10.351102
28.652947,-33.441805,11.580704
28.652947,-31.941805,11.580704
28.652947,-30.441805,11.580704
28.652947,-28.941805,11.580704
28.652947,-27.441805,11.580704
28.652947,-25.941805,11.580704
28.652947,-24.441805,11.580704
28.652947,-34.693149,12.810305
28.652947,-33.193149,12.810305
28.652947,-31.693149,12.810305
28.652947,-30.193149,12.810305
28.652947,-28.693149,12.810305
28.652947,-27.193149,12.810305
28.652947,-25.693149,12.810305
28.652947,-35.929084,14.039906
28.652947,-34.429084,14.039906
28.652947,-32.929084,14.039906
28.652947,-31.429084,14.039906
28.652947,-29.929084,14.039906
28.652947,-28.429084,14.039906
28.652947,-37.000107,15.269508
28.652947,-35.500107,15.269508
28.652947,-34.000107,15.269508
28.652947,-32.500107,15.269508
28.652947,-31.000107,15.269508
28.652947,-29.500107,15.269508
28.652947,-37.719468,16.499109
28.652947,-36.219468,16.499109
28.652947,-34.719468,16.499109
28.652947,-33.219468,16.499109
28.652947,-31.719468,16.499109
28.652947,-37.863175,17.728710
28.652947,-36.363175,17.728710
28.652947,-34.863175,17.728710
28.652947,-33.363175,17.728710
27.120067,-28.239775,0.524416
27.120067,-26.739775,0.524416
27.120067,-25.239775,0.524416
27.120067,-23.739775,0.524416
27.120067,-22.239775,0.524416
27.120067,-20.739775,0.524416
27.120067,-29.047184,1.830263
27.120067,-27.547184,1.830263
27.120067,-26.047184,1.830263
27.120067,-24.547184,1.830263
27.120067,-23.047184,1.830263
27.120067,-21.547184,1.830263
27.120067,-20.047184,1.830263
27.120067,-29.471987,3.136111
27.120067,-27.971987,3.136111
27.120067,-26.471987,3.136111
27.120067,-24.971987,3.136111
27.120067,-23.471987,3.136111
27.120067,-21.971987,3.136111
27.120067,-20.471987,3.136111
27.120067,-29.733194,4.441959
27.120067,-28.233194,4.441959
27.120067,-26.733194,4.441959
27.120067,-25.233194,4.441959
27.120067,-23.733194,4.441959
27.120067,-22.233194,4.441959
27.120067,-20.733194,4.441959
27.120067,-19.233194,4.441959
27.120067,-30.002436,5.747807
27.120067,-28.502436,5.747807
27.120067,-27.002436,5.747807
27.120067,-25.502436,5.747807
27.120067,-24.002436,5.747807
27.120067,-22.502436,5.747807
27.120067,-21.002436,5.747807
27.120067,-19.502436,5.747807
27.120067,-30.403968,7.053654
27.120067,-28.903968,7.053654
27.120067,-27.403968,7.053654
27.120067,-25.903968,7.053654
27.120067,-24.403968,7.053654
27.120067,-22.903968,7.053654
27.120067,-21.403968,7.053654
27.120067,-19.903968,7.053654
27.120067,-31.014663,8.359502
27.120067,-29.514663,8.359502
27.120067,-28.014663,8.359502
27.120067,-26.514663,8.359502
27.120067,-25.014663,8.359502
27.120067,-23.514663,8.359502
27.120067,-22.014663,8.359502
27.120067,-20.514663,8.359502
27.120067,-31.864017,9.665350
27.120067,-30.364017,9.665350
27.120067,-28.864017,9.665350
27.120067,-27.364017,9.665350
27.120067,-25.864017,9.665350
27.120067,-24.364017,9.665350
27.120067,-22.864017,9.665350
27.120067,-21.364017,9.665350
27.120067,-32.934149,10.971197
27.120067,-31.434149,10.971197
27.120067,-29.934149,10.971197
27.120067,-28.434149,10.971197
27.120067,-26.934149,10.971197
27.120067,-25.434149,10.971197
27.120067,-23.934149,10.971197
27.120067,-22.434149,10.971197
27.120067,-34.159797,12.277045
27.120067,-32.659797,12.277045
27.120067,-31.159797,12.277045
27.120067,-29.659797,12.277045
27.120067,-28.159797,12.277045
27.120067,-26.659797,12.277045
27.120067,-25.159797,12.277045
27.120067,-23.659797,12.277045
27.120067,-35.428322,13.582893
27.120067,-33.928322,13.582893
27.120067,-32.428322,13.582893
27.120067,-30.928322,13.582893
27.120067,-29.428322,13.582893
27.120067,-27.928322,13.582893
27.120067,-26.428322,13.582893
27.120067,-36.579707,14.888740
27.120067,-35.079707,14.888740
27.120067,-33.579707,14.888740
27.120067,-32.079707,14.888740
27.120067,-30.579707,14.888740
27.120067,-29.079707,14.888740
27.120067,-27.579707,14.888740
27.120067,-37.406555,16.194588
27.120067,-35.906555,16.194588
27.120067,-34.406555,16.194588
27.120067,-32.906555,16.194588
27.120067,-31.406555,16.194588
27.120067,-29.906555,16.194588
27.120067,-37.654093,17.500436
27.120067,-36.154093,17.500436
27.120067,-34.654093,17.500436
27.120067,-33.154093,17.500436
27.120067,-31.654093,17.500436
27.120067,-37.020166,18.806284
27.120067,-35.520166,18.806284
27.120067,-34.020166,18.806284
23.628508,-29.797779,0.535545
23.628508,-28.297779,0.535545
23.628508,-26.797779,0.535545
23.628508,-25.297779,0.535545
23.628508,-23.797779,0.535545
23.628508,-22.297779,0.535545
23.628508,-20.797779,0.535545
23.628508,-30.462264,1.933402
23.628508,-28.962264,1.933402
23.628508,-27.462264,1.933402
23.628508,-25.962264,1.933402
23.628508,-24.462264,1.933402
23.628508,-22.962264,1.933402
23.628508,-21.462264,1.933402
23.628508,-19.962264,1.933402
23.628508,-30.671786,3.331258
23.628508,-29.171786,3.331258
23.628508,-27.671786,3.331258
23.628508,-26.171786,3.331258
23.628508,-24.671786,3.331258
23.628508,-23.171786,3.331258
23.628508,-21.671786,3.331258
23.628508,-20.171786,3.331258
23.628508,-30.691406,4.729115
23.628508,-29.191406,4.729115
23.628508,-27.691406,4.729115
23.628508,-26.191406,4.729115
23.628508,-24.691406,4.729115
23.628508,-23.191406,4.729115
23.628508,-21.691406,4.729115
23.628508,-20.191406,4.729115
23.628508,-18.691406,4.729115
23.628508,-30.723972,6.126971
23.628508,-29.223972,6.126971
23.628508,-27.723972,6.126971
23.628508,-26.223972,6.126971
23.628508,-24.723972,6.126971
23.628508,-23.223972,6.126971
23.628508,-21.723972,6.126971
23.628508,-20.223972,6.126971
23.628508,-18.723972,6.126971
23.628508,-30.910124,7.524827
23.628508,-29.410124,7.524827
23.628508,-27.910124,7.524827
23.628508,-26.410124,7.524827
23.628508,-24.910124,7.524827
23.628508,-23.410124,7.524827
23.628508,-21.910124,7.524827
23.628508,-20.410124,7.524827
23.628508,-18.910124,7.524827
23.628508,-31.328292,8.922684
23.628508,-29.828292,8.922684
23.628508,-28.328292,8.922684
23.628508,-26.828292,8.922684
23.628508,-25.328292,8.922684
23.628508,-23.828292,8.922684
23.628508,-22.328292,8.922684
23.628508,-20.828292,8.922684
23.628508,-19.328292,8.922684
23.628508,-31.994694,10.320540
23.628508,-30.494694,10.320540
23.628508,-28.994694,10.320540
23.628508,-27.494694,10.320540
23.628508,-25.994694,10.320540
23.628508,-24.494694,10.320540
23.628508,-22.994694,10.320540
23.628508,-21.494694,10.320540
23.628508,-32.863340,11.718396
23.628508,-31.363340,11.718396
23.628508,-29.863340,11.718396
23.628508,-28.363340,11.718396
23.628508,-26.863340,11.718396
23.628508,-25.363340,11.718396
23.628508,-23.863340,11.718396
23.628508,-22.363340,11.718396
23.628508,-33.826029,13.116253
23.628508,-32.326029,13.116253
23.628508,-30.826029,13.116253
23.628508,-29.326029,13.116253
23.628508,-27.826029,13.116253
23.628508,-26.326029,13.116253
23.628508,-24.826029,13.116253
23.628508,-23.326029,13.116253
23.628508,-34.712350,14.514109
23.628508,-33.212350,14.514109
23.628508,-31.712350,14.514109
23.628508,-30.212350,14.514109
23.628508,-28.712350,14.514109
23.628508,-27.212350,14.514109
23.628508,-25.712350,14.514109
23.628508,-35.289681,15.911965
23.628508,-33.789681,15.911965
23.628508,-32.289681,15.911965
23.628508,-30.789681,15.911965
23.628508,-29.289681,15.911965
23.628508,-27.789681,15.911965
23.628508,-35.263192,17.309822
23.628508,-33.763192,17.309822
23.628508,-32.263192,17.309822
23.628508,-30.763192,17.309822
23.628508,-29.263192,17.309822
23.628508,-34.275840,18.707678
23.628508,-32.775840,18.707678
23.628508,-31.275840,18.707678
23.628508,-29.775840,18.707678
23.628508,-31.908375,20.105534
23.628508,-30.408375,20.105534
22.351108,-30.427602,0.533346
22.351108,-28.927602,0.533346
22.351108,-27.427602,0.533346
22.351108,-25.927602,0.533346
22.351108,-24.427602,0.533346
22.351108,-22.927602,0.533346
22.351108,-21.427602,0.533346
22.351108,-30.983893,1.924079
22.351108,-29.483893,1.924079
22.351108,-27.983893,1.924079
22.351108,-26.483893,1.924079
22.351108,-24.983893,1.924079
22.351108,-23.483893,1.924079
22.351108,-21.983893,1.924079
22.351108,-20.483893,1.924079
22.351108,-31.068540,3.314813
22.351108,-29.568540,3.314813
22.351108,-28.068540,3.314813
22.351108,-26.568540,3.314813
22.351108,-25.068540,3.314813
22.351108,-23.568540,3.314813
22.351108,-22.068540,3.314813
22.351108,-20.568540,3.314813
22.351108,-19.068540,3.314813
22.351108,-30.944236,4.705546
22.351108,-29.444236,4.705546
22.351108,-27.944236,4.705546
22.351108,-26.444236,4.705546
22.351108,-24.944236,4.705546
22.351108,-23.444236,4.705546
22.351108,-21.944236,4.705546
22.351108,-20.444236,4.705546
22.351108,-18.944236,4.705546
22.351108,-30.812724,6.096280
22.351108,-29.312724,6.096280
22.351108,-27.812724,6.096280
22.351108,-26.312724,6.096280
22.351108,-24.812724,6.096280
22.351108,-23.312724,6.096280
22.351108,-21.812724,6.096280
22.351108,-20.312724,6.096280
22.351108,-18.812724,6.096280
22.351108,-30.814793,7.487013
22.351108,-29.314793,7.487013
22.351108,-27.814793,7.487013
22.351108,-26.314793,7.487013
22.351108,-24.814793,7.487013
22.351108,-23.314793,7.487013
22.351108,-21.814793,7.487013
22.351108,-20.314793,7.487013
22.351108,-18.814793,7.487013
22.351108,-31.030283,8.877747
22.351108,-29.530283,8.877747
22.351108,-28.030283,8.877747
22.351108,-26.530283,8.877747
22.351108,-25.030283,8.877747
22.351108,-23.530283,8.877747
22.351108,-22.030283,8.877747
22.351108,-20.530283,8.877747
22.351108,-31.478080,10.268480
22.351108,-29.978080,10.268480
22.351108,-28.478080,10.268480
22.351108,-26.978080,10.268480
22.351108,-25.478080,10.268480
22.351108,-23.978080,10.268480
22.351108,-22.478080,10.268480
22.351108,-20.978080,10.268480
22.351108,-32.116119,11.659214
22.351108,-30.616119,11.659214
22.351108,-29.116119,11.659214
22.351108,-27.616119,11.659214
22.351108,-26.116119,11.659214
22.351108,-24.616119,11.659214
22.351108,-23.116119,11.659214
22.351108,-21.616119,11.659214
22.351108,-32.841382,13.049947
22.351108,-31.341382,13.049947
22.351108,-29.841382,13.049947
22.351108,-28.341382,13.049947
22.351108,-26.841382,13.049947
22.351108,-25.341382,13.049947
22.351108,-23.841382,13.049947
22.351108,-33.489902,14.440681
22.351108,-31.989902,14.440681
22.351108,-30.489902,14.440681
22.351108,-28.989902,14.440681
22.351108,-27.489902,14.440681
22.351108,-25.989902,14.440681
22.351108,-24.489902,14.440681
22.351108,-33.836757,15.831414
22.351108,-32.336757,15.831414
22.351108,-30.836757,15.831414
22.351108,-29.336757,15.831414
22.351108,-27.836757,15.831414
22.351108,-26.336757,15.831414
22.351108,-33.596076,17.222148
22.351108,-32.096076,17.222148
22.351108,-30.596076,17.222148
22.351108,-29.096076,17.222148
22.351108,-27.596076,17.222148
22.351108,-32.421034,18.612881
22.351108,-30.921034,18.612881
22.351108,-29.421034,18.612881
22.351108,-27.921034,18.612881
22.351108,-29.903856,20.003615
22.351108,-28.403856,20.003615
21.414348,-30.884155,0.529652
21.414348,-29.384155,0.529652
21.414348,-27.884155,0.529652
21.414348,-26.384155,0.529652
21.414348,-24.884155,0.529652
21.414348,-23.384155,0.529652
21.414348,-21.884155,0.529652
21.414348,-31.343473,1.897710
21.414348,-29.843473,1.897710
21.414348,-28.343473,1.897710
21.414348,-26.843473,1.897710
21.414348,-25.343473,1.897710
21.414348,-23.843473,1.897710
21.414348,-22.343473,1.897710
21.414348,-20.843473,1.897710
21.414348,-31.325494,3.265769
21.414348,-29.825494,3.265769
21.414348,-28.325494,3.265769
21.414348,-26.825494,3.265769
21.414348,-25.325494,3.265769
21.414348,-23.825494,3.265769
21.414348,-22.325494,3.265769
21.414348,-20.825494,3.265769
21.414348,-19.325494,3.265769
21.414348,-31.082612,4.633827
21.414348,-29.582612,4.633827
21.414348,-28.082612,4.633827
21.414348,-26.582612,4.633827
21.414348,-25.082612,4.633827
21.414348,-23.582612,4.633827
21.414348,-22.082612,4.633827
21.414348,-20.582612,4.633827
21.414348,-19.082612,4.633827
21.414348,-30.810148,6.001885
21.414348,-29.310148,6.001885
21.414348,-27.810148,6.001885
21.414348,-26.310148,6.001885
21.414348,-24.810148,6.001885
21.414348,-23.310148,6.001885
21.414348,-21.810148,6.001885
21.414348,-20.310148,6.001885
21.414348,-18.810148,6.001885
21.414348,-30.646351,7.369944
21.414348,-29.146351,7.369944
21.414348,-27.646351,7.369944
21.414348,-26.146351,7.369944
21.414348,-24.646351,7.369944
21.414348,-23.146351,7.369944
21.414348,-21.646351,7.369944
21.414348,-20.146351,7.369944
21.414348,-30.672397,8.738002
21.414348,-29.172397,8.738002
21.414348,-27.672397,8.738002
21.414348,-26.172397,8.738002
21.414348,-24.672397,8.738002
21.414348,-23.172397,8.738002
21.414348,-21.672397,8.738002
21.414348,-20.172397,8.738002
21.414348,-30.912389,10.106061
21.414348,-29.412389,10.106061
21.414348,-27.912389,10.106061
21.414348,-26.412389,10.106061
21.414348,-24.912389,10.106061
21.414348,-23.412389,10.106061
21.414348,-21.912389,10.106061
21.414348,-20.412389,10.106061
21.414348,-31.333357,11.474119
21.414348,-29.833357,11.474119
21.414348,-28.333357,11.474119
21.414348,-26.833357,11.474119
21.414348,-25.333357,11.474119
21.414348,-23.833357,11.474119
21.414348,-22.333357,11.474119
21.414348,-31.845259,12.842177
21.414348,-30.345259,12.842177
21.414348,-28.845259,12.842177
21.414348,-27.345259,12.842177
21.414348,-25.845259,12.842177
21.414348,-24.345259,12.842177
21.414348,-22.845259,12.842177
21.414348,-32.300979,14.210236
21.414348,-30.800979,14.210236
21.414348,-29.300979,14.210236
21.414348,-27.800979,14.210236
21.414348,-26.300979,14.210236
21.414348,-24.800979,14.210236
21.414348,-32.496330,15.578294
21.414348,-30.996330,15.578294
21.414348,-29.496330,15.578294
21.414348,-27.996330,15.578294
21.414348,-26.496330,15.578294
21.414348,-24.996330,15.578294
21.414348,-32.170049,16.946352
21.414348,-30.670049,16.946352
21.414348,-29.170049,16.946352
21.414348,-27.670049,16.946352
21.414348,-26.170049,16.946352
21.414348,-31.003804,18.314411
21.414348,-29.503804,18.314411
21.414348,-28.003804,18.314411
21.414348,-28.622187,19.682469
21.414348,-27.122187,19.682469
20.562748,-31.283491,0.525042
20.562748,-29.783491,0.525042
20.562748,-28.283491,0.525042
20.562748,-26.783491,0.525042
20.562748,-25.283491,0.525042
20.562748,-23.783491,0.525042
20.562748,-22.283491,0.525042
20.562748,-31.643957,1.858424
20.562748,-30.143957,1.858424
20.562748,-28.643957,1.858424
20.562748,-27.143957,1.858424
20.562748,-25.643957,1.858424
20.562748,-24.143957,1.858424
20.562748,-22.643957,1.858424
20.562748,-21.143957,1.858424
20.562748,-31.528676,3.191806
20.562748,-30.028676,3.191806
20.562748,-28.528676,3.191806
20.562748,-27.028676,3.191806
20.562748,-25.528676,3.191806
20.562748,-24.028676,3.191806
20.562748,-22.528676,3.191806
20.562748,-21.028676,3.191806
20.562748,-31.174166,4.525189
20.562748,-29.674166,4.525189
20.562748,-28.174166,4.525189
20.562748,-26.674166,4.525189
20.562748,-25.174166,4.525189
20.562748,-23.674166,4.525189
20.562748,-22.174166,4.525189
20.562748,-20.674166,4.525189
20.562748,-30.765443,5.858571
20.562748,-29.265443,5.858571
20.562748,-27.765443,5.858571
20.562748,-26.265443,5.858571
20.562748,-24.765443,5.858571
20.562748,-23.265443,5.858571
20.562748,-21.765443,5.858571
20.562748,-20.265443,5.858571
20.562748,-30.436019,7.191953
20.562748,-28.936019,7.191953
20.562748,-27.436019,7.191953
20.562748,-25.936019,7.191953
20.562748,-24.436019,7.191953
20.562748,-22.936019,7.191953
20.562748,-21.436019,7.191953
20.562748,-19.936019,7.191953
20.562748,-30.267906,8.525336
20.562748,-28.767906,8.525336
20.562748,-27.267906,8.525336
20.562748,-25.767906,8.525336
20.562748,-24.267906,8.525336
20.562748,-22.767906,8.525336
20.562748,-21.267906,8.525336
20.562748,-19.767906,8.525336
20.562748,-30.291610,9.858718
20.562748,-28.791610,9.858718
20.562748,-27.291610,9.858718
20.562748,-25.791610,9.858718
20.562748,-24.291610,9.858718
20.562748,-22.791610,9.858718
20.562748,-21.291610,9.858718
20.562748,-19.791610,9.858718
20.562748,-30.486137,11.192100
20.562748,-28.986137,11.192100
20.562748,-27.486137,11.192100
20.562748,-25.986137,11.192100
20.562748,-24.486137,11.192100
20.562748,-22.986137,11.192100
20.562748,-21.486137,11.192100
20.562748,-30.778990,12.525483
20.562748,-29.278990,12.525483
20.562748,-27.778990,12.525483
20.562748,-26.278990,12.525483
20.562748,-24.778990,12.525483
20.562748,-23.278990,12.525483
20.562748,-21.778990,12.525483
20.562748,-31.046167,13.858865
20.562748,-29.546167,13.858865
20.562748,-28.046167,13.858865
20.562748,-26.546167,13.858865
20.562748,-25.046167,13.858865
20.562748,-23.546167,13.858865
20.562748,-31.112167,15.192247
20.562748,-29.612167,15.192247
20.562748,-28.112167,15.192247
20.562748,-26.612167,15.192247
20.562748,-25.112167,15.192247
20.562748,-30.749984,16.525630
20.562748,-29.249984,16.525630
20.562748,-27.749984,16.525630
20.562748,-26.249984,16.525630
20.562748,-29.681109,17.859012
20.562748,-28.181109,17.859012
20.562748,-26.681109,17.859012
20.562748,-27.575531,19.192394
18.859549,-31.994528,0.513742
18.859549,-30.494528,0.513742
18.859549,-28.994528,0.513742
18.859549,-27.494528,0.513742
18.859549,-25.994528,0.513742
18.859549,-24.494528,0.513742
18.859549,-22.994528,0.513742
18.859549,-32.138990,1.734063
18.859549,-30.638990,1.734063
18.859549,-29.138990,1.734063
18.859549,-27.638990,1.734063
18.859549,-26.138990,1.734063
18.859549,-24.638990,1.734063
18.859549,-23.138990,1.734063
18.859549,-21.638990,1.734063
18.859549,-31.836682,2.954384
18.859549,-30.336682,2.954384
18.859549,-28.836682,2.954384
18.859549,-27.336682,2.954384
18.859549,-25.836682,2.954384
18.859549,-24.336682,2.954384
18.859549,-22.836682,2.954384
18.859549,-21.336682,2.954384
18.859549,-31.275263,4.174705
18.859549,-29.775263,4.174705
18.859549,-28.275263,4.174705
18.859549,-26.775263,4.174705
18.859549,-25.275263,4.174705
18.859549,-23.775263,4.174705
18.859549,-22.275263,4.174705
18.859549,-20.775263,4.174705
18.859549,-30.606257,5.395026
18.859549,-29.106257,5.395026
18.859549,-27.606257,5.395026
18.859549,-26.106257,5.395026
18.859549,-24.606257,5.395026
18.859549,-23.106257,5.395026
18.859549,-21.606257,5.395026
18.859549,-20.106257,5.395026
18.859549,-29.945055,6.615347
18.859549,-28.445055,6.615347
18.859549,-26.945055,6.615347
18.859549,-25.445055,6.615347
18.859549,-23.945055,6.615347
18.859549,-22.445055,6.615347
18.859549,-20.945055,6.615347
18.859549,-29.370918,7.835668
18.859549,-27.870918,7.835668
18.859549,-26.370918,7.835668
18.859549,-24.870918,7.835668
18.859549,-23.370918,7.835668
18.859549,-21.870918,7.835668
18.859549,-20.370918,7.835668
18.859549,-28.926968,9.055989
18.859549,-27.426968,9.055989
18.859549,-25.926968,9.055989
18.859549,-24.426968,9.055989
18.859549,-22.926968,9.055989
18.859549,-21.426968,9.055989
18.859549,-28.620199,10.276310
18.859549,-27.120199,10.276310
18.859549,-25.620199,10.276310
18.859549,-24.120199,10.276310
18.859549,-22.620199,10.276310
18.859549,-21.120199,10.276310
18.859549,-28.421468,11.496631
18.859549,-26.921468,11.496631
18.859549,-25.421468,11.496631
18.859549,-23.921468,11.496631
18.859549,-22.421468,11.496631
18.859549,-28.265502,12.716952
18.859549,-26.765502,12.716952
18.859549,-25.265502,12.716952
18.859549,-23.765502,12.716952
18.859549,-22.265502,12.716952
18.859549,-28.050893,13.937273
18.859549,-26.550893,13.937273
18.859549,-25.050893,13.937273
18.859549,-23.550893,13.937273
18.859549,-27.640098,15.157594
18.859549,-26.140098,15.157594
18.859549,-24.640098,15.157594
18.859549,-26.859444,16.377915
18.859549,-25.359444,16.377915
18.859549,-25.499123,17.598236
17.326670,-32.470639,0.504047
17.326670,-30.970639,0.504047
17.326670,-29.470639,0.504047
17.326670,-27.970639,0.504047
17.326670,-26.470639,0.504047
17.326670,-24.970639,0.504047
17.326670,-32.423779,1.568982
17.326670,-30.923779,1.568982
17.326670,-29.423779,1.568982
17.326670,-27.923779,1.568982
17.326670,-26.423779,1.568982
17.326670,-24.923779,1.568982
17.326670,-23.423779,1.568982
17.326670,-31.993625,2.633917
17.326670,-30.493625,2.633917
17.326670,-28.993625,2.633917
17.326670,-27.493625,2.633917
17.326670,-25.993625,2.633917
17.326670,-24.493625,2.633917
17.326670,-22.993625,2.633917
17.326670,-31.310261,3.698852
17.326670,-29.810261,3.698852
17.326670,-28.310261,3.698852
17.326670,-26.810261,3.698852
17.326670,-25.310261,3.698852
17.326670,-23.810261,3.698852
17.326670,-22.310261,3.698852
17.326670,-30.482815,4.763787
17.326670,-28.982815,4.763787
17.326670,-27.482815,4.763787
17.326670,-25.982815,4.763787
17.326670,-24.482815,4.763787
17.326670,-22.982815,4.763787
17.326670,-21.482815,4.763787
17.326670,-29.599460,5.828722
17.326670,-28.099460,5.828722
17.326670,-26.599460,5.828722
17.326670,-25.099460,5.828722
17.326670,-23.599460,5.828722
17.326670,-22.099460,5.828722
17.326670,-28.727413,6.893656
17.326670,-27.227413,6.893656
17.326670,-25.727413,6.893656
17.326670,-24.227413,6.893656
17.326670,-22.727413,6.893656
17.326670,-21.227413,6.893656
17.326670,-27.912934,7.958591
17.326670,-26.412934,7.958591
17.326670,-24.912934,7.958591
17.326670,-23.412934,7.958591
17.326670,-21.912934,7.958591
17.326670,-27.181330,9.023526
17.326670,-25.681330,9.023526
17.326670,-24.181330,9.023526
17.326670,-22.681330,9.023526
17.326670,-21.181330,9.023526
17.326670,-26.536951,10.088461
17.326670,-25.036951,10.088461
17.326670,-23.536951,10.088461
17.326670,-22.036951,10.088461
17.326670,-25.963189,11.153396
17.326670,-24.463189,11.153396
17.326670,-22.963189,11.153396
17.326670,-25.422483,12.218331
17.326670,-23.922483,12.218331
17.326670,-22.422483,12.218331
17.326670,-24.856316,13.283266
17.326670,-23.356316,13.283266
17.326670,-24.185214,14.348200
17.326670,-23.754688,15.413135
15.964110,-32.698551,0.499173
15.964110,-31.198551,0.499173
15.964110,-29.698551,0.499173
15.964110,-28.198551,0.499173
15.964110,-26.698551,0.499173
15.964110,-32.513193,1.380977
15.964110,-31.013193,1.380977
15.964110,-29.513193,1.380977
15.964110,-28.013193,1.380977
15.964110,-26.513193,1.380977
15.964110,-32.033104,2.262782
15.964110,-30.533104,2.262782
15.964110,-29.033104,2.262782
15.964110,-27.533104,2.262782
15.964110,-26.033104,2.262782
15.964110,-24.533104,2.262782
15.964110,-31.335561,3.144587
15.964110,-29.835561,3.144587
15.964110,-28.335561,3.144587
15.964110,-26.835561,3.144587
15.964110,-25.335561,3.144587
15.964110,-30.487989,4.026391
15.964110,-28.987989,4.026391
15.964110,-27.487989,4.026391
15.964110,-25.987989,4.026391
15.964110,-24.487989,4.026391
15.964110,-29.547960,4.908196
15.964110,-28.047960,4.908196
15.964110,-26.547960,4.908196
15.964110,-25.047960,4.908196
15.964110,-23.547960,4.908196
15.964110,-28.563197,5.790000
15.964110,-27.063197,5.790000
15.964110,-25.563197,5.790000
15.964110,-24.063197,5.790000
15.964110,-22.563197,5.790000
15.964110,-27.571571,6.671805
15.964110,-26.071571,6.671805
15.964110,-24.571571,6.671805
15.964110,-23.071571,6.671805
15.964110,-26.601100,7.553610
15.964110,-25.101100,7.553610
15.964110,-23.601100,7.553610
15.964110,-22.101100,7.553610
15.964110,-25.669952,8.435414
15.964110,-24.169952,8.435414
15.964110,-22.669952,8.435414
15.964110,-24.786444,9.317219
15.964110,-23.286444,9.317219
15.964110,-23.949039,10.199023
15.964110,-22.449039,10.199023
15.964110,-23.146351,11.080828
15.964110,-22.718538,11.962633
15.964110,-23.061432,12.844437
15.964110,-21.561432,12.844437
16.645389,-32.611618,0.500946
16.645389,-31.111618,0.500946
16.645389,-29.611618,0.500946
16.645389,-28.111618,0.500946
16.645389,-26.611618,0.500946
16.645389,-25.111618,0.500946
16.645389,-32.489828,1.479696
16.645389,-30.989828,1.479696
16.645389,-29.489828,1.479696
16.645389,-27.989828,1.479696
16.645389,-26.489828,1.479696
16.645389,-24.989828,1.479696
16.645389,-32.025442,2.458447
16.645389,-30.525442,2.458447
16.645389,-29.025442,2.458447
16.645389,-27.525442,2.458447
16.645389,-26.025442,2.458447
16.645389,-24.525442,2.458447
16.645389,-31.321676,3.437198
16.645389,-29.821676,3.437198
16.645389,-28.321676,3.437198
16.645389,-26.821676,3.437198
16.645389,-25.321676,3.437198
16.645389,-23.821676,3.437198
16.645389,-30.466793,4.415948
16.645389,-28.966793,4.415948
16.645389,-27.466793,4.415948
16.645389,-25.966793,4.415948
16.645389,-24.466793,4.415948
16.645389,-22.966793,4.415948
16.645389,-29.534104,5.394699
16.645389,-28.034104,5.394699
16.645389,-26.534104,5.394699
16.645389,-25.034104,5.394699
16.645389,-23.534104,5.394699
16.645389,-22.034104,5.394699
16.645389,-28.581969,6.373450
16.645389,-27.081969,6.373450
16.645389,-25.581969,6.373450
16.645389,-24.081969,6.373450
16.645389,-22.581969,6.373450
16.645389,-27.653795,7.352200
16.645389,-26.153795,7.352200
16.645389,-24.653795,7.352200
16.645389,-23.153795,7.352200
16.645389,-21.653795,7.352200
16.645389,-26.778037,8.330951
16.645389,-25.278037,8.330951
16.645389,-23.778037,8.330951
16.645389,-22.278037,8.330951
16.645389,-25.968198,9.309702
16.645389,-24.468198,9.309702
16.645389,-22.968198,9.309702
16.645389,-21.468198,9.309702
16.645389,-25.222830,10.288453
16.645389,-23.722830,10.288453
16.645389,-22.222830,10.288453
16.645389,-24.525532,11.267203
16.645389,-23.025532,11.267203
16.645389,-23.844952,12.245954
16.645389,-23.134785,13.224705
16.645389,-23.337054,14.203455
16.815710,-32.581133,0.501614
16.815710,-31.081133,0.501614
16.815710,-29.581133,0.501614
16.815710,-28.081133,0.501614
16.815710,-26.581133,0.501614
16.815710,-25.081133,0.501614
16.815710,-32.477164,1.502915
16.815710,-30.977164,1.502915
16.815710,-29.477164,1.502915
16.815710,-27.977164,1.502915
16.815710,-26.477164,1.502915
16.815710,-24.977164,1.502915
16.815710,-32.019721,2.504217
16.815710,-30.519721,2.504217
16.815710,-29.019721,2.504217
16.815710,-27.519721,2.504217
16.815710,-26.019721,2.504217
16.815710,-24.519721,2.504217
16.815710,-31.318700,3.505518
16.815710,-29.818700,3.505518
16.815710,-28.318700,3.505518
16.815710,-26.818700,3.505518
16.815710,-25.318700,3.505518
16.815710,-23.818700,3.505518
16.815710,-30.467620,4.506820
16.815710,-28.967620,4.506820
16.815710,-27.467620,4.506820
16.815710,-25.967620,4.506820
16.815710,-24.467620,4.506820
16.815710,-22.967620,4.506820
16.815710,-29.543619,5.508121
16.815710,-28.043619,5.508121
16.815710,-26.543619,5.508121
16.815710,-25.043619,5.508121
16.815710,-23.543619,5.508121
16.815710,-22.043619,5.508121
16.815710,-28.607460,6.509423
16.815710,-27.107460,6.509423
16.815710,-25.607460,6.509423
16.815710,-24.107460,6.509423
16.815710,-22.607460,6.509423
16.815710,-27.703524,7.510724
16.815710,-26.203524,7.510724
16.815710,-24.703524,7.510724
16.815710,-23.203524,7.510724
16.815710,-21.703524,7.510724
16.815710,-26.859816,8.512026
16.815710,-25.359816,8.512026
16.815710,-23.859816,8.512026
16.815710,-22.359816,8.512026
16.815710,-26.087963,9.513327
16.815710,-24.587963,9.513327
16.815710,-23.087963,9.513327
16.815710,-21.587963,9.513327
16.815710,-25.383212,10.514629
16.815710,-23.883212,10.514629
16.815710,-22.383212,10.514629
16.815710,-24.724433,11.515930
16.815710,-23.224433,11.515930
16.815710,-24.074116,12.517232
16.815710,-22.574116,12.517232
16.815710,-23.378375,13.518534
16.815710,-23.432396,14.519835
50.113263,-34.092678,3.771954
50.113263,-34.295825,4.304985
50.113263,-34.444904,4.838017
50.113263,-32.944904,4.838017
50.113263,-34.548541,5.371048
50.113263,-33.048541,5.371048
50.113263,-34.614047,5.904080
50.113263,-33.114047,5.904080
50.113263,-34.647418,6.437111
50.113263,-33.147418,6.437111
50.113263,-34.653335,6.970143
50.113263,-33.153335,6.970143
50.113263,-31.653335,6.970143
50.113263,-34.635164,7.503174
50.113263,-33.135164,7.503174
50.113263,-31.635164,7.503174
50.113263,-34.594954,8.036206
50.113263,-33.094954,8.036206
50.113263,-31.594954,8.036206
50.113263,-34.533440,8.569237
50.113263,-33.033440,8.569237
50.113263,-31.533440,8.569237
50.113263,-34.450041,9.102269
50.113263,-32.950041,9.102269
50.113263,-34.342863,9.635301
50.113263,-32.842863,9.635301
50.113263,-34.208694,10.168332
50.113263,-32.708694,10.168332
50.113263,-34.043007,10.701364
50.113263,-32.543007,10.701364
50.113263,-33.839962,11.234395
48.750703,-33.537361,3.083693
48.750703,-33.792574,3.684858
48.750703,-32.292574,3.684858
48.750703,-33.973223,4.286022
48.750703,-32.473223,4.286022
48.750703,-34.093853,4.887187
48.750703,-32.593853,4.887187
48.750703,-34.166882,5.488352
48.750703,-32.666882,5.488352
48.750703,-31.166882,5.488352
48.750703,-34.202598,6.089517
48.750703,-32.702598,6.089517
48.750703,-31.202598,6.089517
48.750703,-34.209161,6.690682
48.750703,-32.709161,6.690682
48.750703,-31.209161,6.690682
48.750703,-34.192605,7.291846
48.750703,-32.692605,7.291846
48.750703,-31.192605,7.291846
48.750703,-34.156833,7.893011
48.750703,-32.656833,7.893011
48.750703,-31.156833,7.893011
48.750703,-34.103623,8.494176
48.750703,-32.603623,8.494176
48.750703,-31.103623,8.494176
48.750703,-34.032622,9.095341
48.750703,-32.532622,9.095341
48.750703,-31.032622,9.095341
48.750703,-33.941352,9.696506
48.750703,-32.441352,9.696506
48.750703,-30.941352,9.696506
48.750703,-33.825203,10.297670
48.750703,-32.325203,10.297670
48.750703,-33.677442,10.898835
48.750703,-32.177442,10.898835
48.750703,-33.489202,11.500000
45.770104,-32.006146,1.949514
45.770104,-30.506146,1.949514
45.770104,-32.346568,2.602239
45.770104,-30.846568,2.602239
45.770104,-32.582230,3.254965
45.770104,-31.082230,3.254965
45.770104,-29.582230,3.254965
45.770104,-32.736805,3.907691
45.770104,-31.236805,3.907691
45.770104,-29.736805,3.907691
45.770104,-32.831007,4.560416
45.770104,-31.331007,4.560416
45.770104,-29.831007,4.560416
45.770104,-32.882593,5.213142
45.770104,-31.382593,5.213142
45.770104,-29.882593,5.213142
45.770104,-32.906361,5.865868
45.770104,-31.406361,5.865868
45.770104,-29.906361,5.865868
45.770104,-28.406361,5.865868
45.770104,-32.914153,6.518593
45.770104,-31.414153,6.518593
45.770104,-29.914153,6.518593
45.770104,-28.414153,6.518593
45.770104,-32.914853,7.171319
45.770104,-31.414853,7.171319
45.770104,-29.914853,7.171319
45.770104,-28.414853,7.171319
45.770104,-32.914387,7.824044
45.770104,-31.414387,7.824044
45.770104,-29.914387,7.824044
45.770104,-28.414387,7.824044
45.770104,-32.915723,8.476770
45.770104,-31.415723,8.476770
45.770104,-29.915723,8.476770
45.770104,-28.415723,8.476770
45.770104,-32.918874,9.129496
45.770104,-31.418874,9.129496
45.770104,-29.918874,9.129496
45.770104,-32.920892,9.782221
45.770104,-31.420892,9.782221
45.770104,-29.920892,9.782221
45.770104,-32.915873,10.434947
45.770104,-31.415873,10.434947
45.770104,-29.915873,10.434947
45.770104,-32.894957,11.087673
45.770104,-31.394957,11.087673
42.534024,-30.171416,1.178763
42.534024,-28.671416,1.178763
42.534024,-30.577854,1.839308
42.534024,-29.077854,1.839308
42.534024,-27.577854,1.839308
42.534024,-30.862866,2.499853
42.534024,-29.362866,2.499853
42.534024,-27.862866,2.499853
42.534024,-31.054849,3.160399
42.534024,-29.554849,3.160399
42.534024,-28.054849,3.160399
42.534024,-31.179097,3.820944
42.534024,-29.679097,3.820944
42.534024,-28.179097,3.820944
42.534024,-31.257801,4.481489
42.534024,-29.757801,4.481489
42.534024,-28.257801,4.481489
42.534024,-26.757801,4.481489
42.534024,-31.310052,5.142034
42.534024,-29.810052,5.142034
42.534024,-28.310052,5.142034
42.534024,-26.810052,5.142034
42.534024,-31.351838,5.802579
42.534024,-29.851838,5.802579
42.534024,-28.351838,5.802579
42.534024,-26.851838,5.802579
42.534024,-31.396045,6.463125
42.534024,-29.896045,6.463125
42.534024,-28.396045,6.463125
42.534024,-26.896045,6.463125
42.534024,-31.452458,7.123670
42.534024,-29.952458,7.123670
42.534024,-28.452458,7.123670
42.534024,-26.952458,7.123670
42.534024,-31.527760,7.784215
42.534024,-30.027760,7.784215
42.534024,-28.527760,7.784215
42.534024,-27.027760,7.784215
42.534024,-31.625531,8.444760
42.534024,-30.125531,8.444760
42.534024,-28.625531,8.444760
42.534024,-27.125531,8.444760
42.534024,-31.746250,9.105305
42.534024,-30.246250,9.105305
42.534024,-28.746250,9.105305
42.534024,-27.246250,9.105305
42.534024,-31.887296,9.765851
42.534024,-30.387296,9.765851
42.534024,-28.887296,9.765851
42.534024,-32.042942,10.426396
42.534024,-30.542942,10.426396
42.534024,-29.042942,10.426396
39.638585,-28.695666,0.786089
39.638585,-27.195666,0.786089
39.638585,-29.164060,1.480709
39.638585,-27.664060,1.480709
39.638585,-26.164060,1.480709
39.638585,-29.493172,2.175328
39.638585,-27.993172,2.175328
39.638585,-26.493172,2.175328
39.638585,-29.718198,2.869947
39.638585,-28.218198,2.869947
39.638585,-26.718198,2.869947
39.638585,-25.218198,2.869947
39.638585,-29.870543,3.564566
39.638585,-28.370543,3.564566
39.638585,-26.870543,3.564566
39.638585,-25.370543,3.564566
39.638585,-29.977816,4.259185
39.638585,-28.477816,4.259185
39.638585,-26.977816,4.259185
39.638585,-25.477816,4.259185
39.638585,-30.063836,4.953804
39.638585,-28.563836,4.953804
39.638585,-27.063836,4.953804
39.638585,-25.563836,4.953804
39.638585,-30.148626,5.648423
39.638585,-28.648626,5.648423
39.638585,-27.148626,5.648423
39.638585,-25.648626,5.648423
39.638585,-30.248417,6.343042
39.638585,-28.748417,6.343042
39.638585,-27.248417,6.343042
39.638585,-25.748417,6.343042
39.638585,-30.375647,7.037661
39.638585,-28.875647,7.037661
39.638585,-27.375647,7.037661
39.638585,-25.875647,7.037661
39.638585,-30.538960,7.732280
39.638585,-29.038960,7.732280
39.638585,-27.538960,7.732280
39.638585,-26.038960,7.732280
39.638585,-30.743209,8.426900
39.638585,-29.243209,8.426900
39.638585,-27.743209,8.426900
39.638585,-26.243209,8.426900
39.638585,-30.989452,9.121519
39.638585,-29.489452,9.121519
39.638585,-27.989452,9.121519
39.638585,-26.489452,9.121519
39.638585,-31.274954,9.816138
39.638585,-29.774954,9.816138
39.638585,-28.274954,9.816138
39.638585,-26.774954,9.816138
39.638585,-31.593188,10.510757
39.638585,-30.093188,10.510757
39.638585,-28.593188,10.510757
39.638585,-27.093188,10.510757
36.828305,-27.644069,0.590240
36.828305,-26.144069,0.590240
36.828305,-24.644069,0.590240
36.828305,-28.193887,1.369508
36.828305,-26.693887,1.369508
36.828305,-25.193887,1.369508
36.828305,-28.572457,2.148777
36.828305,-27.072457,2.148777
36.828305,-25.572457,2.148777
36.828305,-24.072457,2.148777
36.828305,-28.830432,2.928046
36.828305,-27.330432,2.928046
36.828305,-25.830432,2.928046
36.828305,-24.330432,2.928046
36.828305,-29.012457,3.707314
36.828305,-27.512457,3.707314
36.828305,-26.012457,3.707314
36.828305,-24.512457,3.707314
36.828305,-29.157170,4.486583
36.828305,-27.657170,4.486583
36.828305,-26.157170,4.486583
36.828305,-24.657170,4.486583
36.828305,-23.157170,4.486583
36.828305,-29.297196,5.265851
36.828305,-27.797196,5.265851
36.828305,-26.297196,5.265851
36.828305,-24.797196,5.265851
36.828305,-23.297196,5.265851
36.828305,-29.459157,6.045120
36.828305,-27.959157,6.045120
36.828305,-26.459157,6.045120
36.828305,-24.959157,6.045120
36.828305,-23.459157,6.045120
36.828305,-29.663663,6.824388
36.828305,-28.163663,6.824388
36.828305,-26.663663,6.824388
36.828305,-25.163663,6.824388
36.828305,-23.663663,6.824388
36.828305,-29.925318,7.603657
36.828305,-28.425318,7.603657
36.828305,-26.925318,7.603657
36.828305,-25.425318,7.603657
36.828305,-23.925318,7.603657
36.828305,-30.252715,8.382926
36.828305,-28.752715,8.382926
36.828305,-27.252715,8.382926
36.828305,-25.752715,8.382926
36.828305,-24.252715,8.382926
36.828305,-30.648440,9.162194
36.828305,-29.148440,9.162194
36.828305,-27.648440,9.162194
36.828305,-26.148440,9.162194
36.828305,-24.648440,9.162194
36.828305,-31.109071,9.941463
36.828305,-29.609071,9.941463
36.828305,-28.109071,9.941463
36.828305,-26.609071,9.941463
36.828305,-31.625178,10.720731
36.828305,-30.125178,10.720731
36.828305,-28.625178,10.720731
36.828305,-27.125178,10.720731
36.828305,-32.181320,11.500000
36.828305,-30.681320,11.500000
36.828305,-29.181320,11.500000
36.828305,-27.681320,11.500000
33.507066,-27.080879,0.506472
33.507066,-25.580879,0.506472
33.507066,-24.080879,0.506472
33.507066,-22.580879,0.506472
33.507066,-27.752085,1.449365
33.507066,-26.252085,1.449365
33.507066,-24.752085,1.449365
33.507066,-23.252085,1.449365
33.507066,-28.191704,2.392257
33.507066,-26.691704,2.392257
33.507066,-25.191704,2.392257
33.507066,-23.691704,2.392257
33.507066,-22.191704,2.392257
33.507066,-28.488149,3.335150
33.507066,-26.988149,3.335150
33.507066,-25.488149,3.335150
33.507066,-23.988149,3.335150
33.507066,-22.488149,3.335150
33.507066,-28.716953,4.278042
33.507066,-27.216953,4.278042
33.507066,-25.716953,4.278042
33.507066,-24.216953,4.278042
33.507066,-22.716953,4.278042
33.507066,-28.940773,5.220935
33.507066,-27.440773,5.220935
33.507066,-25.940773,5.220935
33.507066,-24.440773,5.220935
33.507066,-22.940773,5.220935
33.507066,-21.440773,5.220935
33.507066,-29.209387,6.163828
33.507066,-27.709387,6.163828
33.507066,-26.209387,6.163828
33.507066,-24.709387,6.163828
33.507066,-23.209387,6.163828
33.507066,-21.709387,6.163828
33.507066,-29.559694,7.106720
33.507066,-28.059694,7.106720
33.507066,-26.559694,7.106720
33.507066,-25.059694,7.106720
33.507066,-23.559694,7.106720
33.507066,-22.059694,7.106720
33.507066,-30.015714,8.049613
33.507066,-28.515714,8.049613
33.507066,-27.015714,8.049613
33.507066,-25.515714,8.049613
33.507066,-24.015714,8.049613
33.507066,-22.515714,8.049613
33.507066,-30.588591,8.992506
33.507066,-29.088591,8.992506
33.507066,-27.588591,8.992506
33.507066,-26.088591,8.992506
33.507066,-24.588591,8.992506
33.507066,-23.088591,8.992506
33.507066,-31.276589,9.935398
33.507066,-29.776589,9.935398
33.507066,-28.276589,9.935398
33.507066,-26.776589,9.935398
33.507066,-25.276589,9.935398
33.507066,-23.776589,9.935398
33.507066,-32.065093,10.878291
33.507066,-30.565093,10.878291
33.507066,-29.065093,10.878291
33.507066,-27.565093,10.878291
33.507066,-26.065093,10.878291
33.507066,-32.926611,11.821184
33.507066,-31.426611,11.821184
33.507066,-29.926611,11.821184
33.507066,-28.426611,11.821184
33.507066,-26.926611,11.821184
33.507066,-33.820773,12.764076
33.507066,-32.320773,12.764076
33.507066,-30.820773,12.764076
33.507066,-29.320773,12.764076
33.507066,-27.820773,12.764076
33.507066,-34.694329,13.706969
33.507066,-33.194329,13.706969
33.507066,-31.694329,13.706969
33.507066,-30.194329,13.706969
31.803866,-27.110848,0.499594
31.803866,-25.610848,0.499594
31.803866,-24.110848,0.499594
31.803866,-22.610848,0.499594
31.803866,-27.843866,1.543296
31.803866,-26.343866,1.543296
31.803866,-24.843866,1.543296
31.803866,-23.343866,1.543296
31.803866,-21.843866,1.543296
31.803866,-28.307041,2.586999
31.803866,-26.807041,2.586999
31.803866,-25.307041,2.586999
31.803866,-23.807041,2.586999
31.803866,-22.307041,2.586999
31.803866,-28.618229,3.630702
31.803866,-27.118229,3.630702
31.803866,-25.618229,3.630702
31.803866,-24.118229,3.630702
31.803866,-22.618229,3.630702
31.803866,-21.118229,3.630702
31.803866,-28.875954,4.674405
31.803866,-27.375954,4.674405
31.803866,-25.875954,4.674405
31.803866,-24.375954,4.674405
31.803866,-22.875954,4.674405
31.803866,-21.375954,4.674405
31.803866,-29.159406,5.718107
31.803866,-27.659406,5.718107
31.803866,-26.159406,5.718107
31.803866,-24.659406,5.718107
31.803866,-23.159406,5.718107
31.803866,-21.659406,5.718107
31.803866,-29.528440,6.761810
31.803866,-28.028440,6.761810
31.803866,-26.528440,6.761810
31.803866,-25.028440,6.761810
31.803866,-23.528440,6.761810
31.803866,-22.028440,6.761810
31.803866,-30.023579,7.805513
31.803866,-28.523579,7.805513
31.803866,-27.023579,7.805513
31.803866,-25.523579,7.805513
31.803866,-24.023579,7.805513
31.803866,-22.523579,7.805513
31.803866,-30.666011,8.849216
31.803866,-29.166011,8.849216
31.803866,-27.666011,8.849216
31.803866,-26.166011,8.849216
31.803866,-24.666011,8.849216
31.803866,-23.166011,8.849216
31.803866,-31.457589,9.892919
31.803866,-29.957589,9.892919
31.803866,-28.457589,9.892919
31.803866,-26.957589,9.892919
31.803866,-25.457589,9.892919
31.803866,-23.957589,9.892919
31.803866,-32.380835,10.936621
31.803866,-30.880835,10.936621
31.803866,-29.380835,10.936621
31.803866,-27.880835,10.936621
31.803866,-26.380835,10.936621
31.803866,-24.880835,10.936621
31.803866,-33.398935,11.980324
31.803866,-31.898935,11.980324
31.803866,-30.398935,11.980324
31.803866,-28.898935,11.980324
31.803866,-27.398935,11.980324
31.803866,-25.898935,11.980324
31.803866,-34.455742,13.024027
31.803866,-32.955742,13.024027
31.803866,-31.455742,13.024027
31.803866,-29.955742,13.024027
31.803866,-28.455742,13.024027
31.803866,-35.475774,14.067730
31.803866,-33.975774,14.067730
31.803866,-32.475774,14.067730
31.803866,-30.975774,14.067730
31.803866,-29.475774,14.067730
31.803866,-36.364217,15.111433
31.803866,-34.864217,15.111433
31.803866,-33.364217,15.111433
31.803866,-31.864217,15.111433
30.867107,-27.219276,0.501596
30.867107,-25.719276,0.501596
