-21.642259,-30.301255,3.043655
-21.642259,-28.801255,3.043655
-21.642259,-27.301255,3.043655
-21.642259,-25.801255,3.043655
-21.642259,-24.301255,3.043655
-21.642259,-33.590281,4.306205
-21.642259,-32.090281,4.306205
-21.642259,-30.590281,4.306205
-21.642259,-29.090281,4.306205
-21.642259,-27.590281,4.306205
-21.642259,-26.090281,4.306205
-21.642259,-24.590281,4.306205
-21.642259,-33.876225,5.568755
-21.642259,-32.376225,5.568755
-21.642259,-30.876225,5.568755
-21.642259,-29.376225,5.568755
-21.642259,-27.876225,5.568755
-21.642259,-26.376225,5.568755
-21.642259,-24.876225,5.568755
-21.642259,-23.376225,5.568755
-21.642259,-34.275962,6.831305
-21.642259,-32.775962,6.831305
-21.642259,-31.275962,6.831305
-21.642259,-29.775962,6.831305
-21.642259,-28.275962,6.831305
-21.642259,-26.775962,6.831305
-21.642259,-25.275962,6.831305
-21.642259,-23.775962,6.831305
-21.642259,-34.864968,8.093855
-21.642259,-33.364968,8.093855
-21.642259,-31.864968,8.093855
-21.642259,-30.364968,8.093855
-21.642259,-28.864968,8.093855
-21.642259,-27.364968,8.093855
-21.642259,-25.864968,8.093855
-21.642259,-24.364968,8.093855
-21.642259,-35.677316,9.356405
-21.642259,-34.177316,9.356405
-21.642259,-32.677316,9.356405
-21.642259,-31.177316,9.356405
-21.642259,-29.677316,9.356405
-21.642259,-28.177316,9.356405
-21.642259,-26.677316,9.356405
-21.642259,-25.177316,9.356405
-21.642259,-36.705682,10.618955
-21.642259,-35.205682,10.618955
-21.642259,-33.705682,10.618955
-21.642259,-32.205682,10.618955
-21.642259,-30.705682,10.618955
-21.642259,-29.205682,10.618955
-21.642259,-27.705682,10.618955
-21.642259,-26.205682,10.618955
-21.642259,-37.901338,11.881505
-21.642259,-36.401338,11.881505
-21.642259,-34.901338,11.881505
-21.642259,-33.401338,11.881505
-21.642259,-31.901338,11.881505
-21.642259,-30.401338,11.881505
-21.642259,-28.901338,11.881505
-21.642259,-39.174159,13.144055
-21.642259,-37.674159,13.144055
-21.642259,-36.174159,13.144055
-21.642259,-34.674159,13.144055
-21.642259,-33.174159,13.144055
-21.642259,-31.674159,13.144055
-21.642259,-30.174159,13.144055
-21.642259,-40.392617,14.406604
-21.642259,-38.892617,14.406604
-21.642259,-37.392617,14.406604
-21.642259,-35.892617,14.406604
-21.642259,-34.392617,14.406604
-21.642259,-32.892617,14.406604
-21.642259,-31.392617,14.406604
-21.642259,-41.383784,15.669154
-21.642259,-39.883784,15.669154
-21.642259,-38.383784,15.669154
-21.642259,-36.883784,15.669154
-21.642259,-35.383784,15.669154
-21.642259,-33.883784,15.669154
-21.642259,-41.933333,16.931704
-21.642259,-40.433333,16.931704
-21.642259,-38.933333,16.931704
-21.642259,-37.433333,16.931704
-21.642259,-35.933333,16.931704
-21.642259,-41.785534,18.194254
-21.642259,-40.285534,18.194254
-21.642259,-38.785534,18.194254
-19.474408,-33.183017,0.533471
-19.474408,-31.683017,0.533471
-19.474408,-30.183017,0.533471
-19.474408,-28.683017,0.533471
-19.474408,-27.183017,0.533471
-19.474408,-25.683017,0.533471
-19.474408,-24.183017,0.533471
-19.474408,-33.938151,1.907895
-19.474408,-32.438151,1.907895
-19.474408,-30.938151,1.907895
-19.474408,-29.438151,1.907895
-19.474408,-27.938151,1.907895
-19.474408,-26.438151,1.907895
-19.474408,-24.938151,1.907895
-19.474408,-23.438151,1.907895
-19.474408,-34.267367,3.282319
-19.474408,-32.767367,3.282319
-19.474408,-31.267367,3.282319
-19.474408,-29.767367,3.282319
-19.474408,-28.267367,3.282319
-19.474408,-26.767367,3.282319
-19.474408,-25.267367,3.282319
-19.474408,-23.767367,3.282319
-19.474408,-34.422901,4.656743
-19.474408,-32.922901,4.656743
-19.474408,-31.422901,4.656743
-19.474408,-29.922901,4.656743
-19.474408,-28.422901,4.656743
-19.474408,-26.922901,4.656743
-19.474408,-25.422901,4.656743
-19.474408,-23.922901,4.656743
-19.474408,-34.598847,6.031167
-19.474408,-33.098847,6.031167
-19.474408,-31.598847,6.031167
-19.474408,-30.098847,6.031167
-19.474408,-28.598847,6.031167
-19.474408,-27.098847,6.031167
-19.474408,-25.598847,6.031167
-19.474408,-24.098847,6.031167
-19.474408,-34.931157,7.405591
-19.474408,-33.431157,7.405591
-19.474408,-31.931157,7.405591
-19.474408,-30.431157,7.405591
-19.474408,-28.931157,7.405591
-19.474408,-27.431157,7.405591
-19.474408,-25.931157,7.405591
-19.474408,-24.431157,7.405591
-19.474408,-22.931157,7.405591
-19.474408,-35.497638,8.780015
-19.474408,-33.997638,8.780015
-19.474408,-32.497638,8.780015
-19.474408,-30.997638,8.780015
-19.474408,-29.497638,8.780015
-19.474408,-27.997638,8.780015
-19.474408,-26.497638,8.780015
-19.474408,-24.997638,8.780015
-19.474408,-36.317957,10.154439
-19.474408,-34.817957,10.154439
-19.474408,-33.317957,10.154439
-19.474408,-31.817957,10.154439
-19.474408,-30.317957,10.154439
-19.474408,-28.817957,10.154439
-19.474408,-27.317957,10.154439
-19.474408,-25.817957,10.154439
-19.474408,-37.353638,11.528863
-19.474408,-35.853638,11.528863
-19.474408,-34.353638,11.528863
-19.474408,-32.853638,11.528863
-19.474408,-31.353638,11.528863
-19.474408,-29.853638,11.528863
-19.474408,-28.353638,11.528863
-19.474408,-26.853638,11.528863
-19.474408,-38.508063,12.903287
-19.474408,-37.008063,12.903287
-19.474408,-35.508063,12.903287
-19.474408,-34.008063,12.903287
-19.474408,-32.508063,12.903287
-19.474408,-31.008063,12.903287
-19.474408,-29.508063,12.903287
-19.474408,-28.008063,12.903287
-19.474408,-39.626470,14.277711
-19.474408,-38.126470,14.277711
-19.474408,-36.626470,14.277711
-19.474408,-35.126470,14.277711
-19.474408,-33.626470,14.277711
-19.474408,-32.126470,14.277711
-19.474408,-30.626470,14.277711
-19.474408,-40.495955,15.652135
-19.474408,-38.995955,15.652135
-19.474408,-37.495955,15.652135
-19.474408,-35.995955,15.652135
-19.474408,-34.495955,15.652135
-19.474408,-32.995955,15.652135
-19.474408,-31.495955,15.652135
-19.474408,-40.845473,17.026558
-19.474408,-39.345473,17.026558
-19.474408,-37.845473,17.026558
-19.474408,-36.345473,17.026558
-19.474408,-34.845473,17.026558
-19.474408,-33.345473,17.026558
-19.474408,-40.345834,18.400982
-19.474408,-38.845834,18.400982
-19.474408,-37.345834,18.400982
-19.474408,-35.845834,18.400982
-19.474408,-38.609707,19.775406
-19.474408,-37.109707,19.775406
-18.362689,-33.876845,0.535568
-18.362689,-32.376845,0.535568
-18.362689,-30.876845,0.535568
-18.362689,-29.376845,0.535568
-18.362689,-27.876845,0.535568
-18.362689,-26.376845,0.535568
-18.362689,-24.876845,0.535568
-18.362689,-34.547957,1.932961
-18.362689,-33.047957,1.932961
-18.362689,-31.547957,1.932961
-18.362689,-30.047957,1.932961
-18.362689,-28.547957,1.932961
-18.362689,-27.047957,1.932961
-18.362689,-25.547957,1.932961
-18.362689,-24.047957,1.932961
-18.362689,-34.765606,3.330355
-18.362689,-33.265606,3.330355
-18.362689,-31.765606,3.330355
-18.362689,-30.265606,3.330355
-18.362689,-28.765606,3.330355
-18.362689,-27.265606,3.330355
-18.362689,-25.765606,3.330355
-18.362689,-24.265606,3.330355
-18.362689,-34.794539,4.727748
-18.362689,-33.294539,4.727748
-18.362689,-31.794539,4.727748
-18.362689,-30.294539,4.727748
-18.362689,-28.794539,4.727748
-18.362689,-27.294539,4.727748
-18.362689,-25.794539,4.727748
-18.362689,-24.294539,4.727748
-18.362689,-22.794539,4.727748
-18.362689,-34.837372,6.125141
-18.362689,-33.337372,6.125141
-18.362689,-31.837372,6.125141
-18.362689,-30.337372,6.125141
-18.362689,-28.837372,6.125141
-18.362689,-27.337372,6.125141
-18.362689,-25.837372,6.125141
-18.362689,-24.337372,6.125141
-18.362689,-22.837372,6.125141
-18.362689,-35.034597,7.522535
-18.362689,-33.534597,7.522535
-18.362689,-32.034597,7.522535
-18.362689,-30.534597,7.522535
-18.362689,-29.034597,7.522535
-18.362689,-27.534597,7.522535
-18.362689,-26.034597,7.522535
-18.362689,-24.534597,7.522535
-18.362689,-23.034597,7.522535
-18.362689,-35.464577,8.919928
-18.362689,-33.964577,8.919928
-18.362689,-32.464577,8.919928
-18.362689,-30.964577,8.919928
-18.362689,-29.464577,8.919928
-18.362689,-27.964577,8.919928
-18.362689,-26.464577,8.919928
-18.362689,-24.964577,8.919928
-18.362689,-23.464577,8.919928
-18.362689,-36.143546,10.317322
-18.362689,-34.643546,10.317322
-18.362689,-33.143546,10.317322
-18.362689,-31.643546,10.317322
-18.362689,-30.143546,10.317322
-18.362689,-28.643546,10.317322
-18.362689,-27.143546,10.317322
-18.362689,-25.643546,10.317322
-18.362689,-37.025612,11.714715
-18.362689,-35.525612,11.714715
-18.362689,-34.025612,11.714715
-18.362689,-32.525612,11.714715
-18.362689,-31.025612,11.714715
-18.362689,-29.525612,11.714715
-18.362689,-28.025612,11.714715
-18.362689,-26.525612,11.714715
-18.362689,-38.002754,13.112108
-18.362689,-36.502754,13.112108
-18.362689,-35.002754,13.112108
-18.362689,-33.502754,13.112108
-18.362689,-32.002754,13.112108
-18.362689,-30.502754,13.112108
-18.362689,-29.002754,13.112108
-18.362689,-27.502754,13.112108
-18.362689,-38.904825,14.509502
-18.362689,-37.404825,14.509502
-18.362689,-35.904825,14.509502
-18.362689,-34.404825,14.509502
-18.362689,-32.904825,14.509502
-18.362689,-31.404825,14.509502
-18.362689,-29.904825,14.509502
-18.362689,-39.499549,15.906895
-18.362689,-37.999549,15.906895
-18.362689,-36.499549,15.906895
-18.362689,-34.999549,15.906895
-18.362689,-33.499549,15.906895
-18.362689,-31.999549,15.906895
-18.362689,-39.492521,17.304288
-18.362689,-37.992521,17.304288
-18.362689,-36.492521,17.304288
-18.362689,-34.992521,17.304288
-18.362689,-33.492521,17.304288
-18.362689,-38.527211,18.701682
-18.362689,-37.027211,18.701682
-18.362689,-35.527211,18.701682
-18.362689,-34.027211,18.701682
-18.362689,-36.184959,20.099075
-18.362689,-34.684959,20.099075
-17.362142,-34.524314,0.533512
-17.362142,-33.024314,0.533512
-17.362142,-31.524314,0.533512
-17.362142,-30.024314,0.533512
-17.362142,-28.524314,0.533512
-17.362142,-27.024314,0.533512
-17.362142,-25.524314,0.533512
-17.362142,-35.085893,1.925104
-17.362142,-33.585893,1.925104
-17.362142,-32.085893,1.925104
-17.362142,-30.585893,1.925104
-17.362142,-29.085893,1.925104
-17.362142,-27.585893,1.925104
-17.362142,-26.085893,1.925104
-17.362142,-24.585893,1.925104
-17.362142,-35.176360,3.316697
-17.362142,-33.676360,3.316697
-17.362142,-32.176360,3.316697
-17.362142,-30.676360,3.316697
-17.362142,-29.176360,3.316697
-17.362142,-27.676360,3.316697
-17.362142,-26.176360,3.316697
-17.362142,-24.676360,3.316697
-17.362142,-23.176360,3.316697
-17.362142,-35.058785,4.708290
-17.362142,-33.558785,4.708290
-17.362142,-32.058785,4.708290
-17.362142,-30.558785,4.708290
-17.362142,-29.058785,4.708290
-17.362142,-27.558785,4.708290
-17.362142,-26.058785,4.708290
-17.362142,-24.558785,4.708290
-17.362142,-23.058785,4.708290
-17.362142,-34.935135,6.099882
-17.362142,-33.435135,6.099882
-17.362142,-31.935135,6.099882
-17.362142,-30.435135,6.099882
-17.362142,-28.935135,6.099882
-17.362142,-27.435135,6.099882
-17.362142,-25.935135,6.099882
-17.362142,-24.435135,6.099882
-17.362142,-22.935135,6.099882
-17.362142,-34.946274,7.491475
-17.362142,-33.446274,7.491475
-17.362142,-31.946274,7.491475
-17.362142,-30.446274,7.491475
-17.362142,-28.946274,7.491475
-17.362142,-27.446274,7.491475
-17.362142,-25.946274,7.491475
-17.362142,-24.446274,7.491475
-17.362142,-22.946274,7.491475
-17.362142,-35.171963,8.883067
-17.362142,-33.671963,8.883067
-17.362142,-32.171963,8.883067
-17.362142,-30.671963,8.883067
-17.362142,-29.171963,8.883067
-17.362142,-27.671963,8.883067
-17.362142,-26.171963,8.883067
-17.362142,-24.671963,8.883067
-17.362142,-35.630862,10.274660
-17.362142,-34.130862,10.274660
-17.362142,-32.630862,10.274660
-17.362142,-31.130862,10.274660
-17.362142,-29.630862,10.274660
-17.362142,-28.130862,10.274660
-17.362142,-26.630862,10.274660
-17.362142,-25.130862,10.274660
-17.362142,-36.280527,11.666253
-17.362142,-34.780527,11.666253
-17.362142,-33.280527,11.666253
-17.362142,-31.780527,11.666253
-17.362142,-30.280527,11.666253
-17.362142,-28.780527,11.666253
-17.362142,-27.280527,11.666253
-17.362142,-25.780527,11.666253
-17.362142,-37.017413,13.057845
-17.362142,-35.517413,13.057845
-17.362142,-34.017413,13.057845
-17.362142,-32.517413,13.057845
-17.362142,-31.017413,13.057845
-17.362142,-29.517413,13.057845
-17.362142,-28.017413,13.057845
-17.362142,-37.676871,14.449438
-17.362142,-36.176871,14.449438
-17.362142,-34.676871,14.449438
-17.362142,-33.176871,14.449438
-17.362142,-31.676871,14.449438
-17.362142,-30.176871,14.449438
-17.362142,-28.676871,14.449438
-17.362142,-38.033149,15.841030
-17.362142,-36.533149,15.841030
-17.362142,-35.033149,15.841030
-17.362142,-33.533149,15.841030
-17.362142,-32.033149,15.841030
-17.362142,-30.533149,15.841030
-17.362142,-37.799395,17.232623
-17.362142,-36.299395,17.232623
-17.362142,-34.799395,17.232623
-17.362142,-33.299395,17.232623
-17.362142,-31.799395,17.232623
-17.362142,-36.627651,18.624216
-17.362142,-35.127651,18.624216
-17.362142,-33.627651,18.624216
-17.362142,-32.127651,18.624216
-17.362142,-34.108861,20.015808
-17.362142,-32.608861,20.015808
-15.972494,-35.398879,0.525154
-15.972494,-33.898879,0.525154
-15.972494,-32.398879,0.525154
-15.972494,-30.898879,0.525154
-15.972494,-29.398879,0.525154
-15.972494,-27.898879,0.525154
-15.972494,-26.398879,0.525154
-15.972494,-35.761625,1.859456
-15.972494,-34.261625,1.859456
-15.972494,-32.761625,1.859456
-15.972494,-31.261625,1.859456
-15.972494,-29.761625,1.859456
-15.972494,-28.261625,1.859456
-15.972494,-26.761625,1.859456
-15.972494,-25.261625,1.859456
-15.972494,-35.648509,3.193758
-15.972494,-34.148509,3.193758
-15.972494,-32.648509,3.193758
-15.972494,-31.148509,3.193758
-15.972494,-29.648509,3.193758
-15.972494,-28.148509,3.193758
-15.972494,-26.648509,3.193758
-15.972494,-25.148509,3.193758
-15.972494,-35.296466,4.528060
-15.972494,-33.796466,4.528060
-15.972494,-32.296466,4.528060
-15.972494,-30.796466,4.528060
-15.972494,-29.296466,4.528060
-15.972494,-27.796466,4.528060
-15.972494,-26.296466,4.528060
-15.972494,-24.796466,4.528060
-15.972494,-34.890787,5.862362
-15.972494,-33.390787,5.862362
-15.972494,-31.890787,5.862362
-15.972494,-30.390787,5.862362
-15.972494,-28.890787,5.862362
-15.972494,-27.390787,5.862362
-15.972494,-25.890787,5.862362
-15.972494,-24.390787,5.862362
-15.972494,-34.565118,7.196664
-15.972494,-33.065118,7.196664
-15.972494,-31.565118,7.196664
-15.972494,-30.065118,7.196664
-15.972494,-28.565118,7.196664
-15.972494,-27.065118,7.196664
-15.972494,-25.565118,7.196664
-15.972494,-24.065118,7.196664
-15.972494,-34.401461,8.530966
-15.972494,-32.901461,8.530966
-15.972494,-31.401461,8.530966
-15.972494,-29.901461,8.530966
-15.972494,-28.401461,8.530966
-15.972494,-26.901461,8.530966
-15.972494,-25.401461,8.530966
-15.972494,-23.901461,8.530966
-15.972494,-34.430171,9.865268
-15.972494,-32.930171,9.865268
-15.972494,-31.430171,9.865268
-15.972494,-29.930171,9.865268
-15.972494,-28.430171,9.865268
-15.972494,-26.930171,9.865268
-15.972494,-25.430171,9.865268
-15.972494,-23.930171,9.865268
-15.972494,-34.629962,11.199570
-15.972494,-33.129962,11.199570
-15.972494,-31.629962,11.199570
-15.972494,-30.129962,11.199570
-15.972494,-28.629962,11.199570
-15.972494,-27.129962,11.199570
-15.972494,-25.629962,11.199570
-15.972494,-34.927898,12.533872
-15.972494,-33.427898,12.533872
-15.972494,-31.927898,12.533872
-15.972494,-30.427898,12.533872
-15.972494,-28.927898,12.533872
-15.972494,-27.427898,12.533872
-15.972494,-25.927898,12.533872
-15.972494,-35.199403,13.868174
-15.972494,-33.699403,13.868174
-15.972494,-32.199403,13.868174
-15.972494,-30.699403,13.868174
-15.972494,-29.199403,13.868174
-15.972494,-27.699403,13.868174
-15.972494,-35.268252,15.202476
-15.972494,-33.768252,15.202476
-15.972494,-32.268252,15.202476
-15.972494,-30.768252,15.202476
-15.972494,-29.268252,15.202476
-15.972494,-34.906578,16.536778
-15.972494,-33.406578,16.536778
-15.972494,-31.906578,16.536778
-15.972494,-30.406578,16.536778
-15.972494,-33.834868,17.871080
-15.972494,-32.334868,17.871080
-15.972494,-30.834868,17.871080
-15.972494,-31.721964,19.205382
-14.416088,-36.233991,0.511540
-14.416088,-34.733991,0.511540
-14.416088,-33.233991,0.511540
-14.416088,-31.733991,0.511540
-14.416088,-30.233991,0.511540
-14.416088,-28.733991,0.511540
-14.416088,-27.233991,0.511540
-14.416088,-36.336942,1.703581
-14.416088,-34.836942,1.703581
-14.416088,-33.336942,1.703581
-14.416088,-31.836942,1.703581
-14.416088,-30.336942,1.703581
-14.416088,-28.836942,1.703581
-14.416088,-27.336942,1.703581
-14.416088,-36.003270,2.895622
-14.416088,-34.503270,2.895622
-14.416088,-33.003270,2.895622
-14.416088,-31.503270,2.895622
-14.416088,-30.003270,2.895622
-14.416088,-28.503270,2.895622
-14.416088,-27.003270,2.895622
-14.416088,-25.503270,2.895622
-14.416088,-35.409292,4.087663
-14.416088,-33.909292,4.087663
-14.416088,-32.409292,4.087663
-14.416088,-30.909292,4.087663
-14.416088,-29.409292,4.087663
-14.416088,-27.909292,4.087663
-14.416088,-26.409292,4.087663
-14.416088,-24.909292,4.087663
-14.416088,-34.698428,5.279704
-14.416088,-33.198428,5.279704
-14.416088,-31.698428,5.279704
-14.416088,-30.198428,5.279704
-14.416088,-28.698428,5.279704
-14.416088,-27.198428,5.279704
-14.416088,-25.698428,5.279704
-14.416088,-33.981199,6.471745
-14.416088,-32.481199,6.471745
-14.416088,-30.981199,6.471745
-14.416088,-29.481199,6.471745
-14.416088,-27.981199,6.471745
-14.416088,-26.481199,6.471745
-14.416088,-24.981199,6.471745
-14.416088,-33.335227,7.663786
-14.416088,-31.835227,7.663786
-14.416088,-30.335227,7.663786
-14.416088,-28.835227,7.663786
-14.416088,-27.335227,7.663786
-14.416088,-25.835227,7.663786
-14.416088,-24.335227,7.663786
-14.416088,-32.805236,8.855828
-14.416088,-31.305236,8.855828
-14.416088,-29.805236,8.855828
-14.416088,-28.305236,8.855828
-14.416088,-26.805236,8.855828
-14.416088,-25.305236,8.855828
-14.416088,-32.403051,10.047869
-14.416088,-30.903051,10.047869
-14.416088,-29.403051,10.047869
-14.416088,-27.903051,10.047869
-14.416088,-26.403051,10.047869
-14.416088,-24.903051,10.047869
-14.416088,-32.107600,11.239910
-14.416088,-30.607600,11.239910
-14.416088,-29.107600,11.239910
-14.416088,-27.607600,11.239910
-14.416088,-26.107600,11.239910
-14.416088,-31.864911,12.431951
-14.416088,-30.364911,12.431951
-14.416088,-28.864911,12.431951
-14.416088,-27.364911,12.431951
-14.416088,-31.588114,13.623992
-14.416088,-30.088114,13.623992
-14.416088,-28.588114,13.623992
-14.416088,-27.088114,13.623992
-14.416088,-31.157440,14.816033
-14.416088,-29.657440,14.816033
-14.416088,-28.157440,14.816033
-14.416088,-30.420224,16.008074
-14.416088,-28.920224,16.008074
-14.416088,-29.190899,17.200115
-13.526714,-36.584054,0.504279
-13.526714,-35.084054,0.504279
-13.526714,-33.584054,0.504279
-13.526714,-32.084054,0.504279
-13.526714,-30.584054,0.504279
-13.526714,-29.084054,0.504279
-13.526714,-36.542237,1.574317
-13.526714,-35.042237,1.574317
-13.526714,-33.542237,1.574317
-13.526714,-32.042237,1.574317
-13.526714,-30.542237,1.574317
-13.526714,-29.042237,1.574317
-13.526714,-27.542237,1.574317
-13.526714,-36.114804,2.644355
-13.526714,-34.614804,2.644355
-13.526714,-33.114804,2.644355
-13.526714,-31.614804,2.644355
-13.526714,-30.114804,2.644355
-13.526714,-28.614804,2.644355
-13.526714,-27.114804,2.644355
-13.526714,-35.433543,3.714394
-13.526714,-33.933543,3.714394
-13.526714,-32.433543,3.714394
-13.526714,-30.933543,3.714394
-13.526714,-29.433543,3.714394
-13.526714,-27.933543,3.714394
-13.526714,-26.433543,3.714394
-13.526714,-34.608882,4.784432
-13.526714,-33.108882,4.784432
-13.526714,-31.608882,4.784432
-13.526714,-30.108882,4.784432
-13.526714,-28.608882,4.784432
-13.526714,-27.108882,4.784432
-13.526714,-25.608882,4.784432
-13.526714,-33.729890,5.854471
-13.526714,-32.229890,5.854471
-13.526714,-30.729890,5.854471
-13.526714,-29.229890,5.854471
-13.526714,-27.729890,5.854471
-13.526714,-26.229890,5.854471
-13.526714,-32.864276,6.924509
-13.526714,-31.364276,6.924509
-13.526714,-29.864276,6.924509
-13.526714,-28.364276,6.924509
-13.526714,-26.864276,6.924509
-13.526714,-25.364276,6.924509
-13.526714,-32.058385,7.994548
-13.526714,-30.558385,7.994548
-13.526714,-29.058385,7.994548
-13.526714,-27.558385,7.994548
-13.526714,-26.058385,7.994548
-13.526714,-31.337206,9.064586
-13.526714,-29.837206,9.064586
-13.526714,-28.337206,9.064586
-13.526714,-26.837206,9.064586
-13.526714,-25.337206,9.064586
-13.526714,-30.704365,10.134625
-13.526714,-29.204365,10.134625
-13.526714,-27.704365,10.134625
-13.526714,-26.204365,10.134625
-13.526714,-30.142129,11.204663
-13.526714,-28.642129,11.204663
-13.526714,-27.142129,11.204663
-13.526714,-29.611404,12.274701
-13.526714,-28.111404,12.274701
-13.526714,-26.611404,12.274701
-13.526714,-29.051736,13.344740
-13.526714,-27.551736,13.344740
-13.526714,-28.381311,14.414778
-13.526714,-27.907674,15.484817
-12.637338,-36.798835,0.499612
-12.637338,-35.298835,0.499612
-12.637338,-33.798835,0.499612
-12.637338,-32.298835,0.499612
-12.637338,-30.798835,0.499612
-12.637338,-36.634126,1.416490
-12.637338,-35.134126,1.416490
-12.637338,-33.634126,1.416490
-12.637338,-32.134126,1.416490
-12.637338,-30.634126,1.416490
-12.637338,-29.134126,1.416490
-12.637338,-36.157224,2.333368
-12.637338,-34.657224,2.333368
-12.637338,-33.157224,2.333368
-12.637338,-31.657224,2.333368
-12.637338,-30.157224,2.333368
-12.637338,-28.657224,2.333368
-12.637338,-35.454272,3.250245
-12.637338,-33.954272,3.250245
-12.637338,-32.454272,3.250245
-12.637338,-30.954272,3.250245
-12.637338,-29.454272,3.250245
-12.637338,-27.954272,3.250245
-12.637338,-34.599899,4.167123
-12.637338,-33.099899,4.167123
-12.637338,-31.599899,4.167123
-12.637338,-30.099899,4.167123
-12.637338,-28.599899,4.167123
-12.637338,-27.099899,4.167123
-12.637338,-33.657221,5.084001
-12.637338,-32.157221,5.084001
-12.637338,-30.657221,5.084001
-12.637338,-29.157221,5.084001
-12.637338,-27.657221,5.084001
-12.637338,-32.677835,6.000879
-12.637338,-31.177835,6.000879
-12.637338,-29.677835,6.000879
-12.637338,-28.177835,6.000879
-12.637338,-26.677835,6.000879
-12.637338,-31.701827,6.917757
-12.637338,-30.201827,6.917757
-12.637338,-28.701827,6.917757
-12.637338,-27.201827,6.917757
-12.637338,-30.757767,7.834634
-12.637338,-29.257767,7.834634
-12.637338,-27.757767,7.834634
-12.637338,-26.257767,7.834634
-12.637338,-29.862709,8.751512
-12.637338,-28.362709,8.751512
-12.637338,-26.862709,8.751512
-12.637338,-29.022193,9.668390
-12.637338,-27.522193,9.668390
-12.637338,-26.022193,9.668390
-12.637338,-28.230245,10.585268
-12.637338,-26.730245,10.585268
-12.637338,-27.469376,11.502145
-12.637338,-26.869490,12.419023
-12.637338,-27.257957,13.335901
-12.804096,-36.770611,0.500193
-12.804096,-35.270611,0.500193
-12.804096,-33.770611,0.500193
-12.804096,-32.270611,0.500193
-12.804096,-30.770611,0.500193
-12.804096,-29.270611,0.500193
-12.804096,-36.626427,1.448197
-12.804096,-35.126427,1.448197
-12.804096,-33.626427,1.448197
-12.804096,-32.126427,1.448197
-12.804096,-30.626427,1.448197
-12.804096,-29.126427,1.448197
-12.804096,-36.154670,2.396201
-12.804096,-34.654670,2.396201
-12.804096,-33.154670,2.396201
-12.804096,-31.654670,2.396201
-12.804096,-30.154670,2.396201
-12.804096,-28.654670,2.396201
-12.804096,-35.449844,3.344205
-12.804096,-33.949844,3.344205
-12.804096,-32.449844,3.344205
-12.804096,-30.949844,3.344205
-12.804096,-29.449844,3.344205
-12.804096,-27.949844,3.344205
-12.804096,-34.593290,4.292209
-12.804096,-33.093290,4.292209
-12.804096,-31.593290,4.292209
-12.804096,-30.093290,4.292209
-12.804096,-28.593290,4.292209
-12.804096,-27.093290,4.292209
-12.804096,-33.653191,5.240213
-12.804096,-32.153191,5.240213
-12.804096,-30.653191,5.240213
-12.804096,-29.153191,5.240213
-12.804096,-27.653191,5.240213
-12.804096,-32.684571,6.188217
-12.804096,-31.184571,6.188217
-12.804096,-29.684571,6.188217
-12.804096,-28.184571,6.188217
-12.804096,-26.684571,6.188217
-12.804096,-31.729290,7.136221
-12.804096,-30.229290,7.136221
-12.804096,-28.729290,7.136221
-12.804096,-27.229290,7.136221
-12.804096,-25.729290,7.136221
-12.804096,-30.816054,8.084225
-12.804096,-29.316054,8.084225
-12.804096,-27.816054,8.084225
-12.804096,-26.316054,8.084225
-12.804096,-29.960404,9.032229
-12.804096,-28.460404,9.032229
-12.804096,-26.960404,9.032229
-12.804096,-29.164725,9.980233
-12.804096,-27.664725,9.980233
-12.804096,-26.164725,9.980233
-12.804096,-28.418238,10.928237
-12.804096,-26.918238,10.928237
-12.804096,-27.697009,11.876241
-12.804096,-26.963940,12.824245
-12.804096,-27.348849,13.772249
-13.248784,-36.667458,0.502445
-13.248784,-35.167458,0.502445
-13.248784,-33.667458,0.502445
-13.248784,-32.167458,0.502445
-13.248784,-30.667458,0.502445
-13.248784,-29.167458,0.502445
-13.248784,-36.584039,1.528007
-13.248784,-35.084039,1.528007
-13.248784,-33.584039,1.528007
-13.248784,-32.084039,1.528007
-13.248784,-30.584039,1.528007
-13.248784,-29.084039,1.528007
-13.248784,-36.135608,2.553569
-13.248784,-34.635608,2.553569
-13.248784,-33.135608,2.553569
-13.248784,-31.635608,2.553569
-13.248784,-30.135608,2.553569
-13.248784,-28.635608,2.553569
-13.248784,-27.135608,2.553569
-13.248784,-35.439522,3.579131
-13.248784,-33.939522,3.579131
-13.248784,-32.439522,3.579131
-13.248784,-30.939522,3.579131
-13.248784,-29.439522,3.579131
-13.248784,-27.939522,3.579131
-13.248784,-26.439522,3.579131
-13.248784,-34.595119,4.604693
-13.248784,-33.095119,4.604693
-13.248784,-31.595119,4.604693
-13.248784,-30.095119,4.604693
-13.248784,-28.595119,4.604693
-13.248784,-27.095119,4.604693
-13.248784,-33.683710,5.630256
-13.248784,-32.183710,5.630256
-13.248784,-30.683710,5.630256
-13.248784,-29.183710,5.630256
-13.248784,-27.683710,5.630256
-13.248784,-26.183710,5.630256
-13.248784,-32.768581,6.655818
-13.248784,-31.268581,6.655818
-13.248784,-29.768581,6.655818
-13.248784,-28.268581,6.655818
-13.248784,-26.768581,6.655818
-13.248784,-25.268581,6.655818
-13.248784,-31.894995,7.681380
-13.248784,-30.394995,7.681380
-13.248784,-28.894995,7.681380
-13.248784,-27.394995,7.681380
-13.248784,-25.894995,7.681380
-13.248784,-31.090191,8.706942
-13.248784,-29.590191,8.706942
-13.248784,-28.090191,8.706942
-13.248784,-26.590191,8.706942
-13.248784,-30.363383,9.732504
-13.248784,-28.863383,9.732504
-13.248784,-27.363383,9.732504
-13.248784,-25.863383,9.732504
-13.248784,-29.705760,10.758067
-13.248784,-28.205760,10.758067
-13.248784,-26.705760,10.758067
-13.248784,-29.090487,11.783629
-13.248784,-27.590487,11.783629
-13.248784,-28.472706,12.809191
-13.248784,-26.972706,12.809191
-13.248784,-27.789534,13.834753
-13.248784,-27.670389,14.860315
-14.916362,-35.990904,0.516058
-14.916362,-34.490904,0.516058
-14.916362,-32.990904,0.516058
-14.916362,-31.490904,0.516058
-14.916362,-29.990904,0.516058
-14.916362,-28.490904,0.516058
-14.916362,-26.990904,0.516058
-14.916362,-36.178745,1.763443
-14.916362,-34.678745,1.763443
-14.916362,-33.178745,1.763443
-14.916362,-31.678745,1.763443
-14.916362,-30.178745,1.763443
-14.916362,-28.678745,1.763443
-14.916362,-27.178745,1.763443
-14.916362,-25.678745,1.763443
-14.916362,-35.910942,3.010828
-14.916362,-34.410942,3.010828
-14.916362,-32.910942,3.010828
-14.916362,-31.410942,3.010828
-14.916362,-29.910942,3.010828
-14.916362,-28.410942,3.010828
-14.916362,-26.910942,3.010828
-14.916362,-25.410942,3.010828
-14.916362,-35.386352,4.258213
-14.916362,-33.886352,4.258213
-14.916362,-32.386352,4.258213
-14.916362,-30.886352,4.258213
-14.916362,-29.386352,4.258213
-14.916362,-27.886352,4.258213
-14.916362,-26.386352,4.258213
-14.916362,-24.886352,4.258213
-14.916362,-34.764386,5.505598
-14.916362,-33.264386,5.505598
-14.916362,-31.764386,5.505598
-14.916362,-30.264386,5.505598
-14.916362,-28.764386,5.505598
-14.916362,-27.264386,5.505598
-14.916362,-25.764386,5.505598
-14.916362,-24.264386,5.505598
-14.916362,-34.165007,6.752983
-14.916362,-32.665007,6.752983
-14.916362,-31.165007,6.752983
-14.916362,-29.665007,6.752983
-14.916362,-28.165007,6.752983
-14.916362,-26.665007,6.752983
-14.916362,-25.165007,6.752983
-14.916362,-23.665007,6.752983
-14.916362,-33.668731,8.000368
-14.916362,-32.168731,8.000368
-14.916362,-30.668731,8.000368
-14.916362,-29.168731,8.000368
-14.916362,-27.668731,8.000368
-14.916362,-26.168731,8.000368
-14.916362,-24.668731,8.000368
-14.916362,-33.316629,9.247754
-14.916362,-31.816629,9.247754
-14.916362,-30.316629,9.247754
-14.916362,-28.816629,9.247754
-14.916362,-27.316629,9.247754
-14.916362,-25.816629,9.247754
-14.916362,-24.316629,9.247754
-14.916362,-33.110322,10.495139
-14.916362,-31.610322,10.495139
-14.916362,-30.110322,10.495139
-14.916362,-28.610322,10.495139
-14.916362,-27.110322,10.495139
-14.916362,-25.610322,10.495139
-14.916362,-33.011987,11.742524
-14.916362,-31.511987,11.742524
-14.916362,-30.011987,11.742524
-14.916362,-28.511987,11.742524
-14.916362,-27.011987,11.742524
-14.916362,-25.511987,11.742524
-14.916362,-32.944353,12.989909
-14.916362,-31.444353,12.989909
-14.916362,-29.944353,12.989909
-14.916362,-28.444353,12.989909
-14.916362,-26.944353,12.989909
-14.916362,-32.790701,14.237294
-14.916362,-31.290701,14.237294
-14.916362,-29.790701,14.237294
-14.916362,-28.290701,14.237294
-14.916362,-32.394866,15.484679
-14.916362,-30.894866,15.484679
-14.916362,-29.394866,15.484679
-14.916362,-31.561237,16.732064
-14.916362,-30.061237,16.732064
-14.916362,-30.054756,17.979449
-24.264989,-31.266017,0.499945
-24.264989,-29.766017,0.499945
-24.264989,-28.266017,0.499945
-24.264989,-26.766017,0.499945
-24.264989,-32.010066,1.563857
-24.264989,-30.510066,1.563857
-24.264989,-29.010066,1.563857
-24.264989,-27.510066,1.563857
-24.264989,-26.010066,1.563857
-24.264989,-32.476440,2.627769
-24.264989,-30.976440,2.627769
-24.264989,-29.476440,2.627769
-24.264989,-27.976440,2.627769
-24.264989,-26.476440,2.627769
-24.264989,-24.976440,2.627769
-24.264989,-32.789501,3.691681
-24.264989,-31.289501,3.691681
-24.264989,-29.789501,3.691681
-24.264989,-28.289501,3.691681
-24.264989,-26.789501,3.691681
-24.264989,-25.289501,3.691681
-24.264989,-33.052738,4.755593
-24.264989,-31.552738,4.755593
-24.264989,-30.052738,4.755593
-24.264989,-28.552738,4.755593
-24.264989,-27.052738,4.755593
-24.264989,-25.552738,4.755593
-24.264989,-33.348765,5.819505
-24.264989,-31.848765,5.819505
-24.264989,-30.348765,5.819505
-24.264989,-28.848765,5.819505
-24.264989,-27.348765,5.819505
-24.264989,-25.848765,5.819505
-24.264989,-33.739318,6.883417
-24.264989,-32.239318,6.883417
-24.264989,-30.739318,6.883417
-24.264989,-29.239318,6.883417
-24.264989,-27.739318,6.883417
-24.264989,-26.239318,6.883417
-24.264989,-34.265260,7.947329
-24.264989,-32.765260,7.947329
-24.264989,-31.265260,7.947329
-24.264989,-29.765260,7.947329
-24.264989,-28.265260,7.947329
-24.264989,-26.765260,7.947329
-24.264989,-34.946578,9.011241
-24.264989,-33.446578,9.011241
-24.264989,-31.946578,9.011241
-24.264989,-30.446578,9.011241
-24.264989,-28.946578,9.011241
-24.264989,-27.446578,9.011241
-24.264989,-35.782383,10.075153
-24.264989,-34.282383,10.075153
-24.264989,-32.782383,10.075153
-24.264989,-31.282383,10.075153
-24.264989,-29.782383,10.075153
-24.264989,-28.282383,10.075153
-24.264989,-36.750912,11.139065
-24.264989,-35.250912,11.139065
-24.264989,-33.750912,11.139065
-24.264989,-32.250912,11.139065
-24.264989,-30.750912,11.139065
-24.264989,-29.250912,11.139065
-24.264989,-37.809525,12.202978
-24.264989,-36.309525,12.202978
-24.264989,-34.809525,12.202978
-24.264989,-33.309525,12.202978
-24.264989,-31.809525,12.202978
-24.264989,-30.309525,12.202978
-24.264989,-38.894708,13.266890
-24.264989,-37.394708,13.266890
-24.264989,-35.894708,13.266890
-24.264989,-34.394708,13.266890
-24.264989,-32.894708,13.266890
-24.264989,-31.394708,13.266890
-24.264989,-39.922072,14.330802
-24.264989,-38.422072,14.330802
-24.264989,-36.922072,14.330802
-24.264989,-35.422072,14.330802
-24.264989,-33.922072,14.330802
-24.264989,-40.786350,15.394714
-24.264989,-39.286350,15.394714
-24.264989,-37.786350,15.394714
-24.264989,-36.286350,15.394714
-23.894416,-31.326192,0.501185
-23.894416,-29.826192,0.501185
-23.894416,-28.326192,0.501185
-23.894416,-26.826192,0.501185
-23.894416,-25.326192,0.501185
-23.894416,-32.085407,1.594684
-23.894416,-30.585407,1.594684
-23.894416,-29.085407,1.594684
-23.894416,-27.585407,1.594684
-23.894416,-26.085407,1.594684
-23.894416,-32.555348,2.688183
-23.894416,-31.055348,2.688183
-23.894416,-29.555348,2.688183
-23.894416,-28.055348,2.688183
-23.894416,-26.555348,2.688183
-23.894416,-25.055348,2.688183
-23.894416,-32.870279,3.781682
-23.894416,-31.370279,3.781682
-23.894416,-29.870279,3.781682
-23.894416,-28.370279,3.781682
-23.894416,-26.870279,3.781682
-23.894416,-25.370279,3.781682
-23.894416,-33.141164,4.875181
-23.894416,-31.641164,4.875181
-23.894416,-30.141164,4.875181
-23.894416,-28.641164,4.875181
-23.894416,-27.141164,4.875181
-23.894416,-25.641164,4.875181
-23.894416,-33.455674,5.968680
-23.894416,-31.955674,5.968680
-23.894416,-30.455674,5.968680
-23.894416,-28.955674,5.968680
-23.894416,-27.455674,5.968680
-23.894416,-25.955674,5.968680
-23.894416,-24.455674,5.968680
-23.894416,-33.878183,7.062180
-23.894416,-32.378183,7.062180
-23.894416,-30.878183,7.062180
-23.894416,-29.378183,7.062180
-23.894416,-27.878183,7.062180
-23.894416,-26.378183,7.062180
-23.894416,-24.878183,7.062180
-23.894416,-34.449769,8.155679
-23.894416,-32.949769,8.155679
-23.894416,-31.449769,8.155679
-23.894416,-29.949769,8.155679
-23.894416,-28.449769,8.155679
-23.894416,-26.949769,8.155679
-23.894416,-25.449769,8.155679
-23.894416,-35.188212,9.249178
-23.894416,-33.688212,9.249178
-23.894416,-32.188212,9.249178
-23.894416,-30.688212,9.249178
-23.894416,-29.188212,9.249178
-23.894416,-27.688212,9.249178
-23.894416,-26.188212,9.249178
-23.894416,-36.087999,10.342677
-23.894416,-34.587999,10.342677
-23.894416,-33.087999,10.342677
-23.894416,-31.587999,10.342677
-23.894416,-30.087999,10.342677
-23.894416,-28.587999,10.342677
-23.894416,-27.087999,10.342677
-23.894416,-37.120318,11.436176
-23.894416,-35.620318,11.436176
-23.894416,-34.120318,11.436176
-23.894416,-32.620318,11.436176
-23.894416,-31.120318,11.436176
-23.894416,-29.620318,11.436176
-23.894416,-38.233062,12.529675
-23.894416,-36.733062,12.529675
-23.894416,-35.233062,12.529675
-23.894416,-33.733062,12.529675
-23.894416,-32.233062,12.529675
-23.894416,-30.733062,12.529675
-23.894416,-39.350829,13.623174
-23.894416,-37.850829,13.623174
-23.894416,-36.350829,13.623174
-23.894416,-34.850829,13.623174
-23.894416,-33.350829,13.623174
-23.894416,-31.850829,13.623174
-23.894416,-40.374918,14.716673
-23.894416,-38.874918,14.716673
-23.894416,-37.374918,14.716673
-23.894416,-35.874918,14.716673
-23.894416,-34.374918,14.716673
-23.894416,-41.183334,15.810172
-23.894416,-39.683334,15.810172
-23.894416,-38.183334,15.810172
-23.894416,-36.683334,15.810172
-23.635015,-31.378456,0.502484
-23.635015,-29.878456,0.502484
-23.635015,-28.378456,0.502484
-23.635015,-26.878456,0.502484
-23.635015,-25.378456,0.502484
-23.635015,-32.147480,1.616622
-23.635015,-30.647480,1.616622
-23.635015,-29.147480,1.616622
-23.635015,-27.647480,1.616622
-23.635015,-26.147480,1.616622
-23.635015,-32.619031,2.730759
-23.635015,-31.119031,2.730759
-23.635015,-29.619031,2.730759
-23.635015,-28.119031,2.730759
-23.635015,-26.619031,2.730759
-23.635015,-25.119031,2.730759
-23.635015,-32.934544,3.844897
-23.635015,-31.434544,3.844897
-23.635015,-29.934544,3.844897
-23.635015,-28.434544,3.844897
-23.635015,-26.934544,3.844897
-23.635015,-25.434544,3.844897
-23.635015,-33.210346,4.959034
-23.635015,-31.710346,4.959034
-23.635015,-30.210346,4.959034
-23.635015,-28.710346,4.959034
-23.635015,-27.210346,4.959034
-23.635015,-25.710346,4.959034
-23.635015,-24.210346,4.959034
-23.635015,-33.537659,6.073172
-23.635015,-32.037659,6.073172
-23.635015,-30.537659,6.073172
-23.635015,-29.037659,6.073172
-23.635015,-27.537659,6.073172
-23.635015,-26.037659,6.073172
-23.635015,-24.537659,6.073172
-23.635015,-33.982599,7.187310
-23.635015,-32.482599,7.187310
-23.635015,-30.982599,7.187310
-23.635015,-29.482599,7.187310
-23.635015,-27.982599,7.187310
-23.635015,-26.482599,7.187310
-23.635015,-24.982599,7.187310
-23.635015,-34.586179,8.301447
-23.635015,-33.086179,8.301447
-23.635015,-31.586179,8.301447
-23.635015,-30.086179,8.301447
-23.635015,-28.586179,8.301447
-23.635015,-27.086179,8.301447
-23.635015,-25.586179,8.301447
-23.635015,-35.364305,9.415585
-23.635015,-33.864305,9.415585
-23.635015,-32.364305,9.415585
-23.635015,-30.864305,9.415585
-23.635015,-29.364305,9.415585
-23.635015,-27.864305,9.415585
-23.635015,-26.364305,9.415585
-23.635015,-36.307776,10.529722
-23.635015,-34.807776,10.529722
-23.635015,-33.307776,10.529722
-23.635015,-31.807776,10.529722
-23.635015,-30.307776,10.529722
-23.635015,-28.807776,10.529722
-23.635015,-27.307776,10.529722
-23.635015,-37.382290,11.643860
-23.635015,-35.882290,11.643860
-23.635015,-34.382290,11.643860
-23.635015,-32.882290,11.643860
-23.635015,-31.382290,11.643860
-23.635015,-29.882290,11.643860
-23.635015,-38.528436,12.757997
-23.635015,-37.028436,12.757997
-23.635015,-35.528436,12.757997
-23.635015,-34.028436,12.757997
-23.635015,-32.528436,12.757997
-23.635015,-31.028436,12.757997
-23.635015,-39.661699,13.872135
-23.635015,-38.161699,13.872135
-23.635015,-36.661699,13.872135
-23.635015,-35.161699,13.872135
-23.635015,-33.661699,13.872135
-23.635015,-32.161699,13.872135
-23.635015,-40.672458,14.986272
-23.635015,-39.172458,14.986272
-23.635015,-37.672458,14.986272
-23.635015,-36.172458,14.986272
-23.635015,-34.672458,14.986272
-23.635015,-41.425988,16.100410
-23.635015,-39.925988,16.100410
-23.635015,-38.425988,16.100410
-23.635015,-36.925988,16.100410
-22.856812,-31.583765,0.507924
-22.856812,-30.083765,0.507924
-22.856812,-28.583765,0.507924
-22.856812,-27.083765,0.507924
-22.856812,-25.583765,0.507924
-22.856812,-32.377200,1.682848
-22.856812,-30.877200,1.682848
-22.856812,-29.377200,1.682848
-22.856812,-27.877200,1.682848
-22.856812,-26.377200,1.682848
-22.856812,-24.877200,1.682848
-22.856812,-32.848337,2.857773
-22.856812,-31.348337,2.857773
-22.856812,-29.848337,2.857773
-22.856812,-28.348337,2.857773
-22.856812,-26.848337,2.857773
-22.856812,-25.348337,2.857773
-22.856812,-33.161020,4.032697
-22.856812,-31.661020,4.032697
-22.856812,-30.161020,4.032697
-22.856812,-28.661020,4.032697
-22.856812,-27.161020,4.032697
-22.856812,-25.661020,4.032697
-22.856812,-24.161020,4.032697
-22.856812,-33.448047,5.207621
-22.856812,-31.948047,5.207621
-22.856812,-30.448047,5.207621
-22.856812,-28.948047,5.207621
-22.856812,-27.448047,5.207621
-22.856812,-25.948047,5.207621
-22.856812,-24.448047,5.207621
-22.856812,-33.811165,6.382545
-22.856812,-32.311165,6.382545
-22.856812,-30.811165,6.382545
-22.856812,-29.311165,6.382545
-22.856812,-27.811165,6.382545
-22.856812,-26.311165,6.382545
-22.856812,-24.811165,6.382545
-22.856812,-34.321072,7.557470
-22.856812,-32.821072,7.557470
-22.856812,-31.321072,7.557470
-22.856812,-29.821072,7.557470
-22.856812,-28.321072,7.557470
-22.856812,-26.821072,7.557470
-22.856812,-25.321072,7.557470
-22.856812,-35.017419,8.732394
-22.856812,-33.517419,8.732394
-22.856812,-32.017419,8.732394
-22.856812,-30.517419,8.732394
-22.856812,-29.017419,8.732394
-22.856812,-27.517419,8.732394
-22.856812,-26.017419,8.732394
-22.856812,-35.908804,9.907318
-22.856812,-34.408804,9.907318
-22.856812,-32.908804,9.907318
-22.856812,-31.408804,9.907318
-22.856812,-29.908804,9.907318
-22.856812,-28.408804,9.907318
-22.856812,-26.908804,9.907318
-22.856812,-36.972779,11.082243
-22.856812,-35.472779,11.082243
-22.856812,-33.972779,11.082243
-22.856812,-32.472779,11.082243
-22.856812,-30.972779,11.082243
-22.856812,-29.472779,11.082243
-22.856812,-27.972779,11.082243
-22.856812,-38.155845,12.257167
-22.856812,-36.655845,12.257167
-22.856812,-35.155845,12.257167
-22.856812,-33.655845,12.257167
-22.856812,-32.155845,12.257167
-22.856812,-30.655845,12.257167
-22.856812,-29.155845,12.257167
-22.856812,-39.373455,13.432091
-22.856812,-37.873455,13.432091
-22.856812,-36.373455,13.432091
-22.856812,-34.873455,13.432091
-22.856812,-33.373455,13.432091
-22.856812,-31.873455,13.432091
-22.856812,-40.510013,14.607016
-22.856812,-39.010013,14.607016
-22.856812,-37.510013,14.607016
-22.856812,-36.010013,14.607016
-22.856812,-34.510013,14.607016
-22.856812,-33.010013,14.607016
-22.856812,-41.418871,15.781940
-22.856812,-39.918871,15.781940
-22.856812,-38.418871,15.781940
-22.856812,-36.918871,15.781940
-22.856812,-35.418871,15.781940
-22.856812,-41.922335,16.956864
-22.856812,-40.422335,16.956864
-22.856812,-38.922335,16.956864
-22.856812,-37.422335,16.956864
-22.041552,-31.872581,0.514984
-22.041552,-30.372581,0.514984
-22.041552,-28.872581,0.514984
-22.041552,-27.372581,0.514984
-22.041552,-25.872581,0.514984
-22.041552,-24.372581,0.514984
-22.041552,-32.681283,1.750078
-22.041552,-31.181283,1.750078
-22.041552,-29.681283,1.750078
-22.041552,-28.181283,1.750078
-22.041552,-26.681283,1.750078
-22.041552,-25.181283,1.750078
-22.041552,-33.141618,2.985172
-22.041552,-31.641618,2.985172
-22.041552,-30.141618,2.985172
-22.041552,-28.641618,2.985172
-22.041552,-27.141618,2.985172
-22.041552,-25.641618,2.985172
-22.041552,-24.141618,2.985172
-22.041552,-33.441574,4.220266
-22.041552,-31.941574,4.220266
-22.041552,-30.441574,4.220266
-22.041552,-28.941574,4.220266
-22.041552,-27.441574,4.220266
-22.041552,-25.941574,4.220266
-22.041552,-24.441574,4.220266
-22.041552,-33.731225,5.455359
-22.041552,-32.231225,5.455359
-22.041552,-30.731225,5.455359
-22.041552,-29.231225,5.455359
-22.041552,-27.731225,5.455359
-22.041552,-26.231225,5.455359
-22.041552,-24.731225,5.455359
-22.041552,-34.122729,6.690453
-22.041552,-32.622729,6.690453
-22.041552,-31.122729,6.690453
-22.041552,-29.622729,6.690453
-22.041552,-28.122729,6.690453
-22.041552,-26.622729,6.690453
-22.041552,-25.122729,6.690453
-22.041552,-23.622729,6.690453
-22.041552,-34.690329,7.925547
-22.041552,-33.190329,7.925547
-22.041552,-31.690329,7.925547
-22.041552,-30.190329,7.925547
-22.041552,-28.690329,7.925547
-22.041552,-27.190329,7.925547
-22.041552,-25.690329,7.925547
-22.041552,-24.190329,7.925547
-22.041552,-35.470353,9.160641
-22.041552,-33.970353,9.160641
-22.041552,-32.470353,9.160641
-22.041552,-30.970353,9.160641
-22.041552,-29.470353,9.160641
-22.041552,-27.970353,9.160641
-22.041552,-26.470353,9.160641
-22.041552,-24.970353,9.160641
-22.041552,-36.461215,10.395735
-22.041552,-34.961215,10.395735
-22.041552,-33.461215,10.395735
-22.041552,-31.961215,10.395735
-22.041552,-30.461215,10.395735
-22.041552,-28.961215,10.395735
-22.041552,-27.461215,10.395735
-22.041552,-37.623414,11.630828
-22.041552,-36.123414,11.630828
-22.041552,-34.623414,11.630828
-22.041552,-33.123414,11.630828
-22.041552,-31.623414,11.630828
-22.041552,-30.123414,11.630828
-22.041552,-28.623414,11.630828
-22.041552,-38.879534,12.865922
-22.041552,-37.379534,12.865922
-22.041552,-35.879534,12.865922
-22.041552,-34.379534,12.865922
-22.041552,-32.879534,12.865922
-22.041552,-31.379534,12.865922
-22.041552,-29.879534,12.865922
-22.041552,-40.114242,14.101016
-22.041552,-38.614242,14.101016
-22.041552,-37.114242,14.101016
-22.041552,-35.614242,14.101016
-22.041552,-34.114242,14.101016
-22.041552,-32.614242,14.101016
-22.041552,-31.114242,14.101016
-22.041552,-41.174292,15.336110
-22.041552,-39.674292,15.336110
-22.041552,-38.174292,15.336110
-22.041552,-36.674292,15.336110
-22.041552,-35.174292,15.336110
-22.041552,-33.674292,15.336110
-22.041552,-41.868524,16.571203
-22.041552,-40.368524,16.571203
-22.041552,-38.868524,16.571203
-22.041552,-37.368524,16.571203
-22.041552,-35.868524,16.571203
-22.041552,-41.967860,17.806297
-22.041552,-40.467860,17.806297
-22.041552,-38.967860,17.806297
-22.041552,-37.467860,17.806297
-21.559807,-32.075862,0.519284
-21.559807,-30.575862,0.519284
-21.559807,-29.075862,0.519284
-21.559807,-27.575862,0.519284
-21.559807,-26.075862,0.519284
-21.559807,-24.575862,0.519284
-21.559807,-32.887404,1.787300
-21.559807,-31.387404,1.787300
-21.559807,-29.887404,1.787300
-21.559807,-28.387404,1.787300
-21.559807,-26.887404,1.787300
-21.559807,-25.387404,1.787300
-21.559807,-23.887404,1.787300
-21.559807,-33.335310,3.055316
-21.559807,-31.835310,3.055316
-21.559807,-30.335310,3.055316
-21.559807,-28.835310,3.055316
-21.559807,-27.335310,3.055316
-21.559807,-25.835310,3.055316
-21.559807,-24.335310,3.055316
-21.559807,-33.621636,4.323333
-21.559807,-32.121636,4.323333
-21.559807,-30.621636,4.323333
-21.559807,-29.121636,4.323333
-21.559807,-27.621636,4.323333
-21.559807,-26.121636,4.323333
-21.559807,-24.621636,4.323333
-21.559807,-33.906315,5.591349
-21.559807,-32.406315,5.591349
-21.559807,-30.906315,5.591349
-21.559807,-29.406315,5.591349
-21.559807,-27.906315,5.591349
-21.559807,-26.406315,5.591349
-21.559807,-24.906315,5.591349
-21.559807,-23.406315,5.591349
-21.559807,-34.307158,6.859366
-21.559807,-32.807158,6.859366
-21.559807,-31.307158,6.859366
-21.559807,-29.807158,6.859366
-21.559807,-28.307158,6.859366
-21.559807,-26.807158,6.859366
-21.559807,-25.307158,6.859366
-21.559807,-23.807158,6.859366
-21.559807,-34.899854,8.127382
-21.559807,-33.399854,8.127382
-21.559807,-31.899854,8.127382
-21.559807,-30.399854,8.127382
-21.559807,-28.899854,8.127382
-21.559807,-27.399854,8.127382
-21.559807,-25.899854,8.127382
-21.559807,-24.399854,8.127382
-21.559807,-35.717970,9.395399
-21.559807,-34.217970,9.395399
-21.559807,-32.717970,9.395399
-21.559807,-31.217970,9.395399
-21.559807,-29.717970,9.395399
-21.559807,-28.217970,9.395399
-21.559807,-26.717970,9.395399
-21.559807,-25.217970,9.395399
-21.559807,-36.752951,10.663415
-21.559807,-35.252951,10.663415
-21.559807,-33.752951,10.663415
-21.559807,-32.252951,10.663415
-21.559807,-30.752951,10.663415
-21.559807,-29.252951,10.663415
-21.559807,-27.752951,10.663415
-21.559807,-26.252951,10.663415
-21.559807,-37.954120,11.931431
-21.559807,-36.454120,11.931431
-21.559807,-34.954120,11.931431
-21.559807,-33.454120,11.931431
-21.559807,-31.954120,11.931431
-21.559807,-30.454120,11.931431
-21.559807,-28.954120,11.931431
-21.559807,-39.228676,13.199448
-21.559807,-37.728676,13.199448
-21.559807,-36.228676,13.199448
-21.559807,-34.728676,13.199448
-21.559807,-33.228676,13.199448
-21.559807,-31.728676,13.199448
-21.559807,-30.228676,13.199448
-21.559807,-40.441700,14.467464
-21.559807,-38.941700,14.467464
-21.559807,-37.441700,14.467464
-21.559807,-35.941700,14.467464
-21.559807,-34.441700,14.467464
-21.559807,-32.941700,14.467464
-21.559807,-31.441700,14.467464
-21.559807,-41.416146,15.735481
-21.559807,-39.916146,15.735481
-21.559807,-38.416146,15.735481
-21.559807,-36.916146,15.735481
-21.559807,-35.416146,15.735481
-21.559807,-33.916146,15.735481
-21.559807,-41.932849,17.003497
-21.559807,-40.432849,17.003497
-21.559807,-38.932849,17.003497
-21.559807,-37.432849,17.003497
-21.559807,-35.932849,17.003497
-21.559807,-41.730521,18.271513
-21.559807,-40.230521,18.271513
-21.559807,-38.730521,18.271513
-21.078062,-32.301206,0.523393
-21.078062,-30.801206,0.523393
-21.078062,-29.301206,0.523393
-21.078062,-27.801206,0.523393
-21.078062,-26.301206,0.523393
-21.078062,-24.801206,0.523393
-21.078062,-33.110235,1.821762
-21.078062,-31.610235,1.821762
-21.078062,-30.110235,1.821762
-21.078062,-28.610235,1.821762
-21.078062,-27.110235,1.821762
-21.078062,-25.610235,1.821762
-21.078062,-24.110235,1.821762
-21.078062,-33.540566,3.120131
-21.078062,-32.040566,3.120131
-21.078062,-30.540566,3.120131
-21.078062,-29.040566,3.120131
-21.078062,-27.540566,3.120131
-21.078062,-26.040566,3.120131
-21.078062,-24.540566,3.120131
-21.078062,-33.807787,4.418500
-21.078062,-32.307787,4.418500
-21.078062,-30.807787,4.418500
-21.078062,-29.307787,4.418500
-21.078062,-27.807787,4.418500
-21.078062,-26.307787,4.418500
-21.078062,-24.807787,4.418500
-21.078062,-23.307787,4.418500
-21.078062,-34.081186,5.716869
-21.078062,-32.581186,5.716869
-21.078062,-31.081186,5.716869
-21.078062,-29.581186,5.716869
-21.078062,-28.081186,5.716869
-21.078062,-26.581186,5.716869
-21.078062,-25.081186,5.716869
-21.078062,-23.581186,5.716869
-21.078062,-34.483745,7.015238
-21.078062,-32.983745,7.015238
-21.078062,-31.483745,7.015238
-21.078062,-29.983745,7.015238
-21.078062,-28.483745,7.015238
-21.078062,-26.983745,7.015238
-21.078062,-25.483745,7.015238
-21.078062,-23.983745,7.015238
