28.876701,-40.327361,8.919526
28.876701,-38.827361,8.919526
28.876701,-37.327361,8.919526
28.876701,-35.827361,8.919526
28.876701,-45.764481,10.120765
28.876701,-44.264481,10.120765
28.876701,-42.764481,10.120765
28.876701,-41.264481,10.120765
28.876701,-39.764481,10.120765
28.876701,-38.264481,10.120765
28.876701,-36.764481,10.120765
28.876701,-46.874816,11.322004
28.876701,-45.374816,11.322004
28.876701,-43.874816,11.322004
28.876701,-42.374816,11.322004
28.876701,-40.874816,11.322004
28.876701,-39.374816,11.322004
28.876701,-37.874816,11.322004
28.876701,-48.095044,12.523243
28.876701,-46.595044,12.523243
28.876701,-45.095044,12.523243
28.876701,-43.595044,12.523243
28.876701,-42.095044,12.523243
28.876701,-40.595044,12.523243
28.876701,-39.095044,12.523243
28.876701,-49.327922,13.724482
28.876701,-47.827922,13.724482
28.876701,-46.327922,13.724482
28.876701,-44.827922,13.724482
28.876701,-43.327922,13.724482
28.876701,-41.827922,13.724482
28.876701,-50.442279,14.925722
28.876701,-48.942279,14.925722
28.876701,-47.442279,14.925722
28.876701,-45.942279,14.925722
28.876701,-44.442279,14.925722
28.876701,-42.942279,14.925722
28.876701,-51.273017,16.126961
28.876701,-49.773017,16.126961
28.876701,-48.273017,16.126961
28.876701,-46.773017,16.126961
28.876701,-45.273017,16.126961
28.876701,-51.621115,17.328200
28.876701,-50.121115,17.328200
28.876701,-48.621115,17.328200
28.876701,-47.121115,17.328200
27.352599,-41.789222,0.521189
27.352599,-40.289222,0.521189
27.352599,-38.789222,0.521189
27.352599,-37.289222,0.521189
27.352599,-35.789222,0.521189
27.352599,-34.289222,0.521189
27.352599,-42.600321,1.803358
27.352599,-41.100321,1.803358
27.352599,-39.600321,1.803358
27.352599,-38.100321,1.803358
27.352599,-36.600321,1.803358
27.352599,-35.100321,1.803358
27.352599,-33.600321,1.803358
27.352599,-43.040902,3.085528
27.352599,-41.540902,3.085528
27.352599,-40.040902,3.085528
27.352599,-38.540902,3.085528
27.352599,-37.040902,3.085528
27.352599,-35.540902,3.085528
27.352599,-34.040902,3.085528
27.352599,-43.319263,4.367698
27.352599,-41.819263,4.367698
27.352599,-40.319263,4.367698
27.352599,-38.819263,4.367698
27.352599,-37.319263,4.367698
27.352599,-35.819263,4.367698
27.352599,-34.319263,4.367698
27.352599,-32.819263,4.367698
27.352599,-43.599666,5.649868
27.352599,-42.099666,5.649868
27.352599,-40.599666,5.649868
27.352599,-39.099666,5.649868
27.352599,-37.599666,5.649868
27.352599,-36.099666,5.649868
27.352599,-34.599666,5.649868
27.352599,-33.099666,5.649868
27.352599,-44.002339,6.932038
27.352599,-42.502339,6.932038
27.352599,-41.002339,6.932038
27.352599,-39.502339,6.932038
27.352599,-38.002339,6.932038
27.352599,-36.502339,6.932038
27.352599,-35.002339,6.932038
27.352599,-33.502339,6.932038
27.352599,-44.603475,8.214208
27.352599,-43.103475,8.214208
27.352599,-41.603475,8.214208
27.352599,-40.103475,8.214208
27.352599,-38.603475,8.214208
27.352599,-37.103475,8.214208
27.352599,-35.603475,8.214208
27.352599,-34.103475,8.214208
27.352599,-45.435233,9.496378
27.352599,-43.935233,9.496378
27.352599,-42.435233,9.496378
27.352599,-40.935233,9.496378
27.352599,-39.435233,9.496378
27.352599,-37.935233,9.496378
27.352599,-36.435233,9.496378
27.352599,-34.935233,9.496378
27.352599,-46.485739,10.778548
27.352599,-44.985739,10.778548
27.352599,-43.485739,10.778548
27.352599,-41.985739,10.778548
27.352599,-40.485739,10.778548
27.352599,-38.985739,10.778548
27.352599,-37.485739,10.778548
27.352599,-35.985739,10.778548
27.352599,-47.699080,12.060718
27.352599,-46.199080,12.060718
27.352599,-44.699080,12.060718
27.352599,-43.199080,12.060718
27.352599,-41.699080,12.060718
27.352599,-40.199080,12.060718
27.352599,-38.699080,12.060718
27.352599,-37.199080,12.060718
27.352599,-48.975314,13.342888
27.352599,-47.475314,13.342888
27.352599,-45.975314,13.342888
27.352599,-44.475314,13.342888
27.352599,-42.975314,13.342888
27.352599,-41.475314,13.342888
27.352599,-39.975314,13.342888
27.352599,-50.170461,14.625058
27.352599,-48.670461,14.625058
27.352599,-47.170461,14.625058
27.352599,-45.670461,14.625058
27.352599,-44.170461,14.625058
27.352599,-42.670461,14.625058
27.352599,-41.170461,14.625058
27.352599,-51.096507,15.907228
27.352599,-49.596507,15.907228
27.352599,-48.096507,15.907228
27.352599,-46.596507,15.907228
27.352599,-45.096507,15.907228
27.352599,-43.596507,15.907228
27.352599,-51.521404,17.189398
27.352599,-50.021404,17.189398
27.352599,-48.521404,17.189398
27.352599,-47.021404,17.189398
27.352599,-45.521404,17.189398
27.352599,-51.169070,18.471568
27.352599,-49.669070,18.471568
27.352599,-48.169070,18.471568
25.405135,-42.575096,0.531775
25.405135,-41.075096,0.531775
25.405135,-39.575096,0.531775
25.405135,-38.075096,0.531775
25.405135,-36.575096,0.531775
25.405135,-35.075096,0.531775
25.405135,-33.575096,0.531775
25.405135,-43.349642,1.892460
25.405135,-41.849642,1.892460
25.405135,-40.349642,1.892460
25.405135,-38.849642,1.892460
25.405135,-37.349642,1.892460
25.405135,-35.849642,1.892460
25.405135,-34.349642,1.892460
25.405135,-43.708734,3.253144
25.405135,-42.208734,3.253144
25.405135,-40.708734,3.253144
25.405135,-39.208734,3.253144
25.405135,-37.708734,3.253144
25.405135,-36.208734,3.253144
25.405135,-34.708734,3.253144
25.405135,-33.208734,3.253144
25.405135,-43.897638,4.613829
25.405135,-42.397638,4.613829
25.405135,-40.897638,4.613829
25.405135,-39.397638,4.613829
25.405135,-37.897638,4.613829
25.405135,-36.397638,4.613829
25.405135,-34.897638,4.613829
25.405135,-33.397638,4.613829
25.405135,-44.105768,5.974514
25.405135,-42.605768,5.974514
25.405135,-41.105768,5.974514
25.405135,-39.605768,5.974514
25.405135,-38.105768,5.974514
25.405135,-36.605768,5.974514
25.405135,-35.105768,5.974514
25.405135,-33.605768,5.974514
25.405135,-44.466684,7.335198
25.405135,-42.966684,7.335198
25.405135,-41.466684,7.335198
25.405135,-39.966684,7.335198
25.405135,-38.466684,7.335198
25.405135,-36.966684,7.335198
25.405135,-35.466684,7.335198
25.405135,-33.966684,7.335198
25.405135,-45.058096,8.695883
25.405135,-43.558096,8.695883
25.405135,-42.058096,8.695883
25.405135,-40.558096,8.695883
25.405135,-39.058096,8.695883
25.405135,-37.558096,8.695883
25.405135,-36.058096,8.695883
25.405135,-34.558096,8.695883
25.405135,-45.901860,10.056568
25.405135,-44.401860,10.056568
25.405135,-42.901860,10.056568
25.405135,-41.401860,10.056568
25.405135,-39.901860,10.056568
25.405135,-38.401860,10.056568
25.405135,-36.901860,10.056568
25.405135,-35.401860,10.056568
25.405135,-46.963980,11.417253
25.405135,-45.463980,11.417253
25.405135,-43.963980,11.417253
25.405135,-42.463980,11.417253
25.405135,-40.963980,11.417253
25.405135,-39.463980,11.417253
25.405135,-37.963980,11.417253
25.405135,-36.463980,11.417253
25.405135,-48.154610,12.777937
25.405135,-46.654610,12.777937
25.405135,-45.154610,12.777937
25.405135,-43.654610,12.777937
25.405135,-42.154610,12.777937
25.405135,-40.654610,12.777937
25.405135,-39.154610,12.777937
25.405135,-37.654610,12.777937
25.405135,-49.328048,14.138622
25.405135,-47.828048,14.138622
25.405135,-46.328048,14.138622
25.405135,-44.828048,14.138622
25.405135,-43.328048,14.138622
25.405135,-41.828048,14.138622
25.405135,-40.328048,14.138622
25.405135,-50.282741,15.499307
25.405135,-48.782741,15.499307
25.405135,-47.282741,15.499307
25.405135,-45.782741,15.499307
25.405135,-44.282741,15.499307
25.405135,-42.782741,15.499307
25.405135,-41.282741,15.499307
25.405135,-50.761287,16.859991
25.405135,-49.261287,16.859991
25.405135,-47.761287,16.859991
25.405135,-46.261287,16.859991
25.405135,-44.761287,16.859991
25.405135,-43.261287,16.859991
25.405135,-50.450427,18.220676
25.405135,-48.950427,18.220676
25.405135,-47.450427,18.220676
25.405135,-45.950427,18.220676
25.405135,-48.981052,19.581361
25.405135,-47.481052,19.581361
25.405135,-45.981052,19.581361
23.288326,-43.577001,0.535508
23.288326,-42.077001,0.535508
23.288326,-40.577001,0.535508
23.288326,-39.077001,0.535508
23.288326,-37.577001,0.535508
23.288326,-36.077001,0.535508
23.288326,-34.577001,0.535508
23.288326,-44.235201,1.933682
23.288326,-42.735201,1.933682
23.288326,-41.235201,1.933682
23.288326,-39.735201,1.933682
23.288326,-38.235201,1.933682
23.288326,-36.735201,1.933682
23.288326,-35.235201,1.933682
23.288326,-33.735201,1.933682
23.288326,-44.437078,3.331856
23.288326,-42.937078,3.331856
23.288326,-41.437078,3.331856
23.288326,-39.937078,3.331856
23.288326,-38.437078,3.331856
23.288326,-36.937078,3.331856
23.288326,-35.437078,3.331856
23.288326,-33.937078,3.331856
23.288326,-44.447929,4.730030
23.288326,-42.947929,4.730030
23.288326,-41.447929,4.730030
23.288326,-39.947929,4.730030
23.288326,-38.447929,4.730030
23.288326,-36.947929,4.730030
23.288326,-35.447929,4.730030
23.288326,-33.947929,4.730030
23.288326,-32.447929,4.730030
23.288326,-44.470781,6.128204
23.288326,-42.970781,6.128204
23.288326,-41.470781,6.128204
23.288326,-39.970781,6.128204
23.288326,-38.470781,6.128204
23.288326,-36.970781,6.128204
23.288326,-35.470781,6.128204
23.288326,-33.970781,6.128204
23.288326,-32.470781,6.128204
23.288326,-44.646397,7.526378
23.288326,-43.146397,7.526378
23.288326,-41.646397,7.526378
23.288326,-40.146397,7.526378
23.288326,-38.646397,7.526378
23.288326,-37.146397,7.526378
23.288326,-35.646397,7.526378
23.288326,-34.146397,7.526378
23.288326,-32.646397,7.526378
23.288326,-45.053272,8.924552
23.288326,-43.553272,8.924552
23.288326,-42.053272,8.924552
23.288326,-40.553272,8.924552
23.288326,-39.053272,8.924552
23.288326,-37.553272,8.924552
23.288326,-36.053272,8.924552
23.288326,-34.553272,8.924552
23.288326,-33.053272,8.924552
23.288326,-45.707635,10.322726
23.288326,-44.207635,10.322726
23.288326,-42.707635,10.322726
23.288326,-41.207635,10.322726
23.288326,-39.707635,10.322726
23.288326,-38.207635,10.322726
23.288326,-36.707635,10.322726
23.288326,-35.207635,10.322726
23.288326,-46.563449,11.720900
23.288326,-45.063449,11.720900
23.288326,-43.563449,11.720900
23.288326,-42.063449,11.720900
23.288326,-40.563449,11.720900
23.288326,-39.063449,11.720900
23.288326,-37.563449,11.720900
23.288326,-36.063449,11.720900
23.288326,-47.512408,13.119075
23.288326,-46.012408,13.119075
23.288326,-44.512408,13.119075
23.288326,-43.012408,13.119075
23.288326,-41.512408,13.119075
23.288326,-40.012408,13.119075
23.288326,-38.512408,13.119075
23.288326,-37.012408,13.119075
23.288326,-48.383941,14.517249
23.288326,-46.883941,14.517249
23.288326,-45.383941,14.517249
23.288326,-43.883941,14.517249
23.288326,-42.383941,14.517249
23.288326,-40.883941,14.517249
23.288326,-39.383941,14.517249
23.288326,-48.945210,15.915423
23.288326,-47.445210,15.915423
23.288326,-45.945210,15.915423
23.288326,-44.445210,15.915423
23.288326,-42.945210,15.915423
23.288326,-41.445210,15.915423
23.288326,-48.901111,17.313597
23.288326,-47.401111,17.313597
23.288326,-45.901111,17.313597
23.288326,-44.401111,17.313597
23.288326,-42.901111,17.313597
23.288326,-47.894272,18.711771
23.288326,-46.394272,18.711771
23.288326,-44.894272,18.711771
23.288326,-43.394272,18.711771
23.288326,-45.505054,20.109945
23.288326,-44.005054,20.109945
21.594878,-44.415629,0.531530
21.594878,-42.915629,0.531530
21.594878,-41.415629,0.531530
21.594878,-39.915629,0.531530
21.594878,-38.415629,0.531530
21.594878,-36.915629,0.531530
21.594878,-35.415629,0.531530
21.594878,-44.920720,1.911833
21.594878,-43.420720,1.911833
21.594878,-41.920720,1.911833
21.594878,-40.420720,1.911833
21.594878,-38.920720,1.911833
21.594878,-37.420720,1.911833
21.594878,-35.920720,1.911833
21.594878,-34.420720,1.911833
21.594878,-44.950246,3.292136
21.594878,-43.450246,3.292136
21.594878,-41.950246,3.292136
21.594878,-40.450246,3.292136
21.594878,-38.950246,3.292136
21.594878,-37.450246,3.292136
21.594878,-35.950246,3.292136
21.594878,-34.450246,3.292136
21.594878,-32.950246,3.292136
21.594878,-44.762213,4.672440
21.594878,-43.262213,4.672440
21.594878,-41.762213,4.672440
21.594878,-40.262213,4.672440
21.594878,-38.762213,4.672440
21.594878,-37.262213,4.672440
21.594878,-35.762213,4.672440
21.594878,-34.262213,4.672440
21.594878,-32.762213,4.672440
21.594878,-44.555483,6.052743
21.594878,-43.055483,6.052743
21.594878,-41.555483,6.052743
21.594878,-40.055483,6.052743
21.594878,-38.555483,6.052743
21.594878,-37.055483,6.052743
21.594878,-35.555483,6.052743
21.594878,-34.055483,6.052743
21.594878,-32.555483,6.052743
21.594878,-44.469776,7.433046
21.594878,-42.969776,7.433046
21.594878,-41.469776,7.433046
21.594878,-39.969776,7.433046
21.594878,-38.469776,7.433046
21.594878,-36.969776,7.433046
21.594878,-35.469776,7.433046
21.594878,-33.969776,7.433046
21.594878,-32.469776,7.433046
21.594878,-44.585666,8.813349
21.594878,-43.085666,8.813349
21.594878,-41.585666,8.813349
21.594878,-40.085666,8.813349
21.594878,-38.585666,8.813349
21.594878,-37.085666,8.813349
21.594878,-35.585666,8.813349
21.594878,-34.085666,8.813349
21.594878,-44.924585,10.193652
21.594878,-43.424585,10.193652
21.594878,-41.924585,10.193652
21.594878,-40.424585,10.193652
21.594878,-38.924585,10.193652
21.594878,-37.424585,10.193652
21.594878,-35.924585,10.193652
21.594878,-34.424585,10.193652
21.594878,-45.448819,11.573955
21.594878,-43.948819,11.573955
21.594878,-42.448819,11.573955
21.594878,-40.948819,11.573955
21.594878,-39.448819,11.573955
21.594878,-37.948819,11.573955
21.594878,-36.448819,11.573955
21.594878,-34.948819,11.573955
21.594878,-46.061514,12.954258
21.594878,-44.561514,12.954258
21.594878,-43.061514,12.954258
21.594878,-41.561514,12.954258
21.594878,-40.061514,12.954258
21.594878,-38.561514,12.954258
21.594878,-37.061514,12.954258
21.594878,-46.606668,14.334562
21.594878,-45.106668,14.334562
21.594878,-43.606668,14.334562
21.594878,-42.106668,14.334562
21.594878,-40.606668,14.334562
21.594878,-39.106668,14.334562
21.594878,-37.606668,14.334562
21.594878,-46.869138,15.714865
21.594878,-45.369138,15.714865
21.594878,-43.869138,15.714865
21.594878,-42.369138,15.714865
21.594878,-40.869138,15.714865
21.594878,-39.369138,15.714865
21.594878,-46.574637,17.095168
21.594878,-45.074637,17.095168
21.594878,-43.574637,17.095168
21.594878,-42.074637,17.095168
21.594878,-40.574637,17.095168
21.594878,-45.389733,18.475471
21.594878,-43.889733,18.475471
21.594878,-42.389733,18.475471
21.594878,-42.921852,19.855774
21.594878,-41.421852,19.855774
19.732086,-45.285963,0.521289
19.732086,-43.785963,0.521289
19.732086,-42.285963,0.521289
19.732086,-40.785963,0.521289
19.732086,-39.285963,0.521289
19.732086,-37.785963,0.521289
19.732086,-36.285963,0.521289
19.732086,-45.572667,1.821932
19.732086,-44.072667,1.821932
19.732086,-42.572667,1.821932
19.732086,-41.072667,1.821932
19.732086,-39.572667,1.821932
19.732086,-38.072667,1.821932
19.732086,-36.572667,1.821932
19.732086,-35.072667,1.821932
19.732086,-45.389415,3.122576
19.732086,-43.889415,3.122576
19.732086,-42.389415,3.122576
19.732086,-40.889415,3.122576
19.732086,-39.389415,3.122576
19.732086,-37.889415,3.122576
19.732086,-36.389415,3.122576
19.732086,-34.889415,3.122576
19.732086,-44.958043,4.423219
19.732086,-43.458043,4.423219
19.732086,-41.958043,4.423219
19.732086,-40.458043,4.423219
19.732086,-38.958043,4.423219
19.732086,-37.458043,4.423219
19.732086,-35.958043,4.423219
19.732086,-34.458043,4.423219
19.732086,-44.453759,5.723863
19.732086,-42.953759,5.723863
19.732086,-41.453759,5.723863
19.732086,-39.953759,5.723863
19.732086,-38.453759,5.723863
19.732086,-36.953759,5.723863
19.732086,-35.453759,5.723863
19.732086,-33.953759,5.723863
19.732086,-44.005143,7.024506
19.732086,-42.505143,7.024506
19.732086,-41.005143,7.024506
19.732086,-39.505143,7.024506
19.732086,-38.005143,7.024506
19.732086,-36.505143,7.024506
19.732086,-35.005143,7.024506
19.732086,-33.505143,7.024506
19.732086,-43.694149,8.325149
19.732086,-42.194149,8.325149
19.732086,-40.694149,8.325149
19.732086,-39.194149,8.325149
19.732086,-37.694149,8.325149
19.732086,-36.194149,8.325149
19.732086,-34.694149,8.325149
19.732086,-33.194149,8.325149
19.732086,-43.556101,9.625793
19.732086,-42.056101,9.625793
19.732086,-40.556101,9.625793
19.732086,-39.056101,9.625793
19.732086,-37.556101,9.625793
19.732086,-36.056101,9.625793
19.732086,-34.556101,9.625793
19.732086,-43.579697,10.926436
19.732086,-42.079697,10.926436
19.732086,-40.579697,10.926436
19.732086,-39.079697,10.926436
19.732086,-37.579697,10.926436
19.732086,-36.079697,10.926436
19.732086,-34.579697,10.926436
19.732086,-43.707007,12.227079
19.732086,-42.207007,12.227079
19.732086,-40.707007,12.227079
19.732086,-39.207007,12.227079
19.732086,-37.707007,12.227079
19.732086,-36.207007,12.227079
19.732086,-43.833473,13.527723
19.732086,-42.333473,13.527723
19.732086,-40.833473,13.527723
19.732086,-39.333473,13.527723
19.732086,-37.833473,13.527723
19.732086,-43.807910,14.828366
19.732086,-42.307910,14.828366
19.732086,-40.807910,14.828366
19.732086,-39.307910,14.828366
19.732086,-37.807910,14.828366
19.732086,-43.432504,16.129009
19.732086,-41.932504,16.129009
19.732086,-40.432504,16.129009
19.732086,-38.932504,16.129009
19.732086,-42.462815,17.429653
19.732086,-40.962815,17.429653
19.732086,-39.462815,17.429653
19.732086,-40.607775,18.730296
18.207984,-45.883218,0.510838
18.207984,-44.383218,0.510838
18.207984,-42.883218,0.510838
18.207984,-41.383218,0.510838
18.207984,-39.883218,0.510838
18.207984,-38.383218,0.510838
18.207984,-36.883218,0.510838
18.207984,-45.972827,1.693252
18.207984,-44.472827,1.693252
18.207984,-42.972827,1.693252
18.207984,-41.472827,1.693252
18.207984,-39.972827,1.693252
18.207984,-38.472827,1.693252
18.207984,-36.972827,1.693252
18.207984,-45.629443,2.875665
18.207984,-44.129443,2.875665
18.207984,-42.629443,2.875665
18.207984,-41.129443,2.875665
18.207984,-39.629443,2.875665
18.207984,-38.129443,2.875665
18.207984,-36.629443,2.875665
18.207984,-35.129443,2.875665
18.207984,-45.025611,4.058078
18.207984,-43.525611,4.058078
18.207984,-42.025611,4.058078
18.207984,-40.525611,4.058078
18.207984,-39.025611,4.058078
18.207984,-37.525611,4.058078
18.207984,-36.025611,4.058078
18.207984,-34.525611,4.058078
18.207984,-44.302023,5.240491
18.207984,-42.802023,5.240491
18.207984,-41.302023,5.240491
18.207984,-39.802023,5.240491
18.207984,-38.302023,5.240491
18.207984,-36.802023,5.240491
18.207984,-35.302023,5.240491
18.207984,-43.567527,6.422904
18.207984,-42.067527,6.422904
18.207984,-40.567527,6.422904
18.207984,-39.067527,6.422904
18.207984,-37.567527,6.422904
18.207984,-36.067527,6.422904
18.207984,-34.567527,6.422904
18.207984,-42.899120,7.605317
18.207984,-41.399120,7.605317
18.207984,-39.899120,7.605317
18.207984,-38.399120,7.605317
18.207984,-36.899120,7.605317
18.207984,-35.399120,7.605317
18.207984,-33.899120,7.605317
18.207984,-42.341951,8.787730
18.207984,-40.841951,8.787730
18.207984,-39.341951,8.787730
18.207984,-37.841951,8.787730
18.207984,-36.341951,8.787730
18.207984,-34.841951,8.787730
18.207984,-41.909322,9.970143
18.207984,-40.409322,9.970143
18.207984,-38.909322,9.970143
18.207984,-37.409322,9.970143
18.207984,-35.909322,9.970143
18.207984,-34.409322,9.970143
18.207984,-41.582684,11.152556
18.207984,-40.082684,11.152556
18.207984,-38.582684,11.152556
18.207984,-37.082684,11.152556
18.207984,-35.582684,11.152556
18.207984,-41.311641,12.334969
18.207984,-39.811641,12.334969
18.207984,-38.311641,12.334969
18.207984,-36.811641,12.334969
18.207984,-41.013950,13.517383
18.207984,-39.513950,13.517383
18.207984,-38.013950,13.517383
18.207984,-36.513950,13.517383
18.207984,-40.575518,14.699796
18.207984,-39.075518,14.699796
18.207984,-37.575518,14.699796
18.207984,-39.850402,15.882209
18.207984,-38.350402,15.882209
18.207984,-38.660815,17.064622
16.345192,-46.363087,0.500642
16.345192,-44.863087,0.500642
16.345192,-43.363087,0.500642
16.345192,-41.863087,0.500642
16.345192,-40.363087,0.500642
16.345192,-38.863087,0.500642
16.345192,-46.232648,1.467865
16.345192,-44.732648,1.467865
16.345192,-43.232648,1.467865
16.345192,-41.732648,1.467865
16.345192,-40.232648,1.467865
16.345192,-38.732648,1.467865
16.345192,-45.765223,2.435088
16.345192,-44.265223,2.435088
16.345192,-42.765223,2.435088
16.345192,-41.265223,2.435088
16.345192,-39.765223,2.435088
16.345192,-38.265223,2.435088
16.345192,-45.060707,3.402311
16.345192,-43.560707,3.402311
16.345192,-42.060707,3.402311
16.345192,-40.560707,3.402311
16.345192,-39.060707,3.402311
16.345192,-37.560707,3.402311
16.345192,-44.204734,4.369534
16.345192,-42.704734,4.369534
16.345192,-41.204734,4.369534
16.345192,-39.704734,4.369534
16.345192,-38.204734,4.369534
16.345192,-36.704734,4.369534
16.345192,-43.268682,5.336758
16.345192,-41.768682,5.336758
16.345192,-40.268682,5.336758
16.345192,-38.768682,5.336758
16.345192,-37.268682,5.336758
16.345192,-35.768682,5.336758
16.345192,-42.309664,6.303981
16.345192,-40.809664,6.303981
16.345192,-39.309664,6.303981
16.345192,-37.809664,6.303981
16.345192,-36.309664,6.303981
16.345192,-41.370537,7.271204
16.345192,-39.870537,7.271204
16.345192,-38.370537,7.271204
16.345192,-36.870537,7.271204
16.345192,-35.370537,7.271204
16.345192,-40.479896,8.238427
16.345192,-38.979896,8.238427
16.345192,-37.479896,8.238427
16.345192,-35.979896,8.238427
16.345192,-39.652076,9.205650
16.345192,-38.152076,9.205650
16.345192,-36.652076,9.205650
16.345192,-38.887153,10.172873
16.345192,-37.387153,10.172873
16.345192,-35.887153,10.172873
16.345192,-38.170943,11.140096
16.345192,-36.670943,11.140096
16.345192,-37.475002,12.107319
16.345192,-36.756625,13.074543
16.345192,-37.029987,14.041766
15.921830,-46.419807,0.499466
15.921830,-44.919807,0.499466
15.921830,-43.419807,0.499466
15.921830,-41.919807,0.499466
15.921830,-40.419807,0.499466
15.921830,-46.249054,1.406521
15.921830,-44.749054,1.406521
15.921830,-43.249054,1.406521
15.921830,-41.749054,1.406521
15.921830,-40.249054,1.406521
15.921830,-38.749054,1.406521
15.921830,-45.770988,2.313576
15.921830,-44.270988,2.313576
15.921830,-42.770988,2.313576
15.921830,-41.270988,2.313576
15.921830,-39.770988,2.313576
15.921830,-38.270988,2.313576
15.921830,-45.069210,3.220631
15.921830,-43.569210,3.220631
15.921830,-42.069210,3.220631
15.921830,-40.569210,3.220631
15.921830,-39.069210,3.220631
15.921830,-37.569210,3.220631
15.921830,-44.216293,4.127687
15.921830,-42.716293,4.127687
15.921830,-41.216293,4.127687
15.921830,-39.716293,4.127687
15.921830,-38.216293,4.127687
15.921830,-43.273779,5.034742
15.921830,-41.773779,5.034742
15.921830,-40.273779,5.034742
15.921830,-38.773779,5.034742
15.921830,-37.273779,5.034742
15.921830,-42.292183,5.941797
15.921830,-40.792183,5.941797
15.921830,-39.292183,5.941797
15.921830,-37.792183,5.941797
15.921830,-36.292183,5.941797
15.921830,-41.310990,6.848852
15.921830,-39.810990,6.848852
15.921830,-38.310990,6.848852
15.921830,-36.810990,6.848852
15.921830,-40.358655,7.755907
15.921830,-38.858655,7.755907
15.921830,-37.358655,7.755907
15.921830,-35.858655,7.755907
15.921830,-39.452605,8.662962
15.921830,-37.952605,8.662962
15.921830,-36.452605,8.662962
15.921830,-38.599237,9.570017
15.921830,-37.099237,9.570017
15.921830,-37.793919,10.477072
15.921830,-36.293919,10.477072
15.921830,-37.020990,11.384127
15.921830,-36.471618,12.291182
15.921830,-36.847827,13.198237
28.834970,-41.323147,0.511130
28.834970,-39.823147,0.511130
28.834970,-38.323147,0.511130
28.834970,-36.823147,0.511130
28.834970,-35.323147,0.511130
28.834970,-42.125207,1.714742
28.834970,-40.625207,1.714742
28.834970,-39.125207,1.714742
28.834970,-37.625207,1.714742
28.834970,-36.125207,1.714742
28.834970,-34.625207,1.714742
28.834970,-42.592776,2.918353
28.834970,-41.092776,2.918353
28.834970,-39.592776,2.918353
28.834970,-38.092776,2.918353
28.834970,-36.592776,2.918353
28.834970,-35.092776,2.918353
28.834970,-33.592776,2.918353
28.834970,-42.900963,4.121965
28.834970,-41.400963,4.121965
28.834970,-39.900963,4.121965
28.834970,-38.400963,4.121965
28.834970,-36.900963,4.121965
28.834970,-35.400963,4.121965
28.834970,-33.900963,4.121965
28.834970,-43.190680,5.325576
28.834970,-41.690680,5.325576
28.834970,-40.190680,5.325576
28.834970,-38.690680,5.325576
28.834970,-37.190680,5.325576
28.834970,-35.690680,5.325576
28.834970,-34.190680,5.325576
28.834970,-43.568650,6.529188
28.834970,-42.068650,6.529188
28.834970,-40.568650,6.529188
28.834970,-39.068650,6.529188
28.834970,-37.568650,6.529188
28.834970,-36.068650,6.529188
28.834970,-34.568650,6.529188
28.834970,-44.107395,7.732799
28.834970,-42.607395,7.732799
28.834970,-41.107395,7.732799
28.834970,-39.607395,7.732799
28.834970,-38.107395,7.732799
28.834970,-36.607395,7.732799
28.834970,-35.107395,7.732799
28.834970,-44.845248,8.936410
28.834970,-43.345248,8.936410
28.834970,-41.845248,8.936410
28.834970,-40.345248,8.936410
28.834970,-38.845248,8.936410
28.834970,-37.345248,8.936410
28.834970,-35.845248,8.936410
28.834970,-45.786344,10.140022
28.834970,-44.286344,10.140022
28.834970,-42.786344,10.140022
28.834970,-41.286344,10.140022
28.834970,-39.786344,10.140022
28.834970,-38.286344,10.140022
28.834970,-36.786344,10.140022
28.834970,-46.900625,11.343633
28.834970,-45.400625,11.343633
28.834970,-43.900625,11.343633
28.834970,-42.400625,11.343633
28.834970,-40.900625,11.343633
28.834970,-39.400625,11.343633
28.834970,-37.900625,11.343633
28.834970,-48.123838,12.547245
28.834970,-46.623838,12.547245
28.834970,-45.123838,12.547245
28.834970,-43.623838,12.547245
28.834970,-42.123838,12.547245
28.834970,-40.623838,12.547245
28.834970,-39.123838,12.547245
28.834970,-49.357536,13.750856
28.834970,-47.857536,13.750856
28.834970,-46.357536,13.750856
28.834970,-44.857536,13.750856
28.834970,-43.357536,13.750856
28.834970,-41.857536,13.750856
28.834970,-50.469078,14.954467
28.834970,-48.969078,14.954467
28.834970,-47.469078,14.954467
28.834970,-45.969078,14.954467
28.834970,-44.469078,14.954467
28.834970,-42.969078,14.954467
28.834970,-51.291626,16.158079
28.834970,-49.791626,16.158079
28.834970,-48.291626,16.158079
28.834970,-46.791626,16.158079
28.834970,-45.291626,16.158079
28.834970,-51.624151,17.361690
28.834970,-50.124151,17.361690
28.834970,-48.624151,17.361690
28.834970,-47.124151,17.361690
27.746325,-41.652944,0.518555
27.746325,-40.152944,0.518555
27.746325,-38.652944,0.518555
27.746325,-37.152944,0.518555
27.746325,-35.652944,0.518555
27.746325,-34.152944,0.518555
27.746325,-42.464363,1.781105
27.746325,-40.964363,1.781105
27.746325,-39.464363,1.781105
27.746325,-37.964363,1.781105
27.746325,-36.464363,1.781105
27.746325,-34.964363,1.781105
27.746325,-42.914747,3.043655
27.746325,-41.414747,3.043655
27.746325,-39.914747,3.043655
27.746325,-38.414747,3.043655
27.746325,-36.914747,3.043655
27.746325,-35.414747,3.043655
27.746325,-33.914747,3.043655
27.746325,-43.203773,4.306205
27.746325,-41.703773,4.306205
27.746325,-40.203773,4.306205
27.746325,-38.703773,4.306205
27.746325,-37.203773,4.306205
27.746325,-35.703773,4.306205
27.746325,-34.203773,4.306205
27.746325,-43.489717,5.568755
27.746325,-41.989717,5.568755
27.746325,-40.489717,5.568755
27.746325,-38.989717,5.568755
27.746325,-37.489717,5.568755
27.746325,-35.989717,5.568755
27.746325,-34.489717,5.568755
27.746325,-32.989717,5.568755
27.746325,-43.889454,6.831305
27.746325,-42.389454,6.831305
27.746325,-40.889454,6.831305
27.746325,-39.389454,6.831305
27.746325,-37.889454,6.831305
27.746325,-36.389454,6.831305
27.746325,-34.889454,6.831305
27.746325,-33.389454,6.831305
27.746325,-44.478460,8.093855
27.746325,-42.978460,8.093855
27.746325,-41.478460,8.093855
27.746325,-39.978460,8.093855
27.746325,-38.478460,8.093855
27.746325,-36.978460,8.093855
27.746325,-35.478460,8.093855
27.746325,-33.978460,8.093855
27.746325,-45.290808,9.356405
27.746325,-43.790808,9.356405
27.746325,-42.290808,9.356405
27.746325,-40.790808,9.356405
27.746325,-39.290808,9.356405
27.746325,-37.790808,9.356405
27.746325,-36.290808,9.356405
27.746325,-34.790808,9.356405
27.746325,-46.319174,10.618955
27.746325,-44.819174,10.618955
27.746325,-43.319174,10.618955
27.746325,-41.819174,10.618955
27.746325,-40.319174,10.618955
27.746325,-38.819174,10.618955
27.746325,-37.319174,10.618955
27.746325,-35.819174,10.618955
27.746325,-47.514830,11.881505
27.746325,-46.014830,11.881505
27.746325,-44.514830,11.881505
27.746325,-43.014830,11.881505
27.746325,-41.514830,11.881505
27.746325,-40.014830,11.881505
27.746325,-38.514830,11.881505
27.746325,-48.787651,13.144055
27.746325,-47.287651,13.144055
27.746325,-45.787651,13.144055
27.746325,-44.287651,13.144055
27.746325,-42.787651,13.144055
27.746325,-41.287651,13.144055
27.746325,-39.787651,13.144055
27.746325,-50.006108,14.406604
27.746325,-48.506108,14.406604
27.746325,-47.006108,14.406604
27.746325,-45.506108,14.406604
27.746325,-44.006108,14.406604
27.746325,-42.506108,14.406604
27.746325,-41.006108,14.406604
27.746325,-50.997276,15.669154
27.746325,-49.497276,15.669154
27.746325,-47.997276,15.669154
27.746325,-46.497276,15.669154
27.746325,-44.997276,15.669154
27.746325,-43.497276,15.669154
27.746325,-51.546824,16.931704
27.746325,-50.046824,16.931704
27.746325,-48.546824,16.931704
27.746325,-47.046824,16.931704
27.746325,-45.546824,16.931704
27.746325,-51.399026,18.194254
27.746325,-49.899026,18.194254
27.746325,-48.399026,18.194254
24.915850,-42.796509,0.533471
24.915850,-41.296509,0.533471
24.915850,-39.796509,0.533471
24.915850,-38.296509,0.533471
24.915850,-36.796509,0.533471
24.915850,-35.296509,0.533471
24.915850,-33.796509,0.533471
24.915850,-43.551643,1.907895
24.915850,-42.051643,1.907895
24.915850,-40.551643,1.907895
24.915850,-39.051643,1.907895
24.915850,-37.551643,1.907895
24.915850,-36.051643,1.907895
24.915850,-34.551643,1.907895
24.915850,-33.051643,1.907895
24.915850,-43.880859,3.282319
24.915850,-42.380859,3.282319
24.915850,-40.880859,3.282319
24.915850,-39.380859,3.282319
24.915850,-37.880859,3.282319
24.915850,-36.380859,3.282319
24.915850,-34.880859,3.282319
24.915850,-33.380859,3.282319
24.915850,-44.036393,4.656743
24.915850,-42.536393,4.656743
24.915850,-41.036393,4.656743
24.915850,-39.536393,4.656743
24.915850,-38.036393,4.656743
24.915850,-36.536393,4.656743
24.915850,-35.036393,4.656743
24.915850,-33.536393,4.656743
24.915850,-44.212339,6.031167
24.915850,-42.712339,6.031167
24.915850,-41.212339,6.031167
24.915850,-39.712339,6.031167
24.915850,-38.212339,6.031167
24.915850,-36.712339,6.031167
24.915850,-35.212339,6.031167
24.915850,-33.712339,6.031167
24.915850,-44.544648,7.405591
24.915850,-43.044648,7.405591
24.915850,-41.544648,7.405591
24.915850,-40.044648,7.405591
24.915850,-38.544648,7.405591
24.915850,-37.044648,7.405591
24.915850,-35.544648,7.405591
24.915850,-34.044648,7.405591
24.915850,-32.544648,7.405591
24.915850,-45.111129,8.780015
24.915850,-43.611129,8.780015
24.915850,-42.111129,8.780015
24.915850,-40.611129,8.780015
24.915850,-39.111129,8.780015
24.915850,-37.611129,8.780015
24.915850,-36.111129,8.780015
24.915850,-34.611129,8.780015
24.915850,-45.931449,10.154439
24.915850,-44.431449,10.154439
24.915850,-42.931449,10.154439
24.915850,-41.431449,10.154439
24.915850,-39.931449,10.154439
24.915850,-38.431449,10.154439
24.915850,-36.931449,10.154439
24.915850,-35.431449,10.154439
24.915850,-46.967130,11.528863
24.915850,-45.467130,11.528863
24.915850,-43.967130,11.528863
24.915850,-42.467130,11.528863
24.915850,-40.967130,11.528863
24.915850,-39.467130,11.528863
24.915850,-37.967130,11.528863
24.915850,-36.467130,11.528863
24.915850,-48.121555,12.903287
24.915850,-46.621555,12.903287
24.915850,-45.121555,12.903287
24.915850,-43.621555,12.903287
24.915850,-42.121555,12.903287
24.915850,-40.621555,12.903287
24.915850,-39.121555,12.903287
24.915850,-37.621555,12.903287
24.915850,-49.239961,14.277711
24.915850,-47.739961,14.277711
24.915850,-46.239961,14.277711
24.915850,-44.739961,14.277711
24.915850,-43.239961,14.277711
24.915850,-41.739961,14.277711
24.915850,-40.239961,14.277711
24.915850,-50.109447,15.652135
24.915850,-48.609447,15.652135
24.915850,-47.109447,15.652135
24.915850,-45.609447,15.652135
24.915850,-44.109447,15.652135
24.915850,-42.609447,15.652135
24.915850,-41.109447,15.652135
24.915850,-50.458964,17.026558
24.915850,-48.958964,17.026558
24.915850,-47.458964,17.026558
24.915850,-45.958964,17.026558
24.915850,-44.458964,17.026558
24.915850,-42.958964,17.026558
24.915850,-49.959325,18.400982
24.915850,-48.459325,18.400982
24.915850,-46.959325,18.400982
24.915850,-45.459325,18.400982
24.915850,-48.223199,19.775406
24.915850,-46.723199,19.775406
23.464323,-43.490336,0.535568
23.464323,-41.990336,0.535568
23.464323,-40.490336,0.535568
23.464323,-38.990336,0.535568
23.464323,-37.490336,0.535568
23.464323,-35.990336,0.535568
23.464323,-34.490336,0.535568
23.464323,-44.161449,1.932961
23.464323,-42.661449,1.932961
23.464323,-41.161449,1.932961
23.464323,-39.661449,1.932961
23.464323,-38.161449,1.932961
23.464323,-36.661449,1.932961
23.464323,-35.161449,1.932961
23.464323,-33.661449,1.932961
23.464323,-44.379098,3.330355
23.464323,-42.879098,3.330355
23.464323,-41.379098,3.330355
23.464323,-39.879098,3.330355
23.464323,-38.379098,3.330355
23.464323,-36.879098,3.330355
23.464323,-35.379098,3.330355
23.464323,-33.879098,3.330355
23.464323,-44.408030,4.727748
23.464323,-42.908030,4.727748
23.464323,-41.408030,4.727748
23.464323,-39.908030,4.727748
23.464323,-38.408030,4.727748
23.464323,-36.908030,4.727748
23.464323,-35.408030,4.727748
23.464323,-33.908030,4.727748
23.464323,-32.408030,4.727748
23.464323,-44.450863,6.125141
23.464323,-42.950863,6.125141
23.464323,-41.450863,6.125141
23.464323,-39.950863,6.125141
23.464323,-38.450863,6.125141
23.464323,-36.950863,6.125141
23.464323,-35.450863,6.125141
23.464323,-33.950863,6.125141
23.464323,-32.450863,6.125141
23.464323,-44.648089,7.522535
23.464323,-43.148089,7.522535
23.464323,-41.648089,7.522535
23.464323,-40.148089,7.522535
23.464323,-38.648089,7.522535
23.464323,-37.148089,7.522535
23.464323,-35.648089,7.522535
23.464323,-34.148089,7.522535
23.464323,-32.648089,7.522535
23.464323,-45.078068,8.919928
23.464323,-43.578068,8.919928
23.464323,-42.078068,8.919928
23.464323,-40.578068,8.919928
23.464323,-39.078068,8.919928
23.464323,-37.578068,8.919928
23.464323,-36.078068,8.919928
23.464323,-34.578068,8.919928
23.464323,-33.078068,8.919928
23.464323,-45.757037,10.317322
23.464323,-44.257037,10.317322
23.464323,-42.757037,10.317322
23.464323,-41.257037,10.317322
23.464323,-39.757037,10.317322
23.464323,-38.257037,10.317322
23.464323,-36.757037,10.317322
23.464323,-35.257037,10.317322
23.464323,-46.639103,11.714715
23.464323,-45.139103,11.714715
23.464323,-43.639103,11.714715
23.464323,-42.139103,11.714715
23.464323,-40.639103,11.714715
23.464323,-39.139103,11.714715
23.464323,-37.639103,11.714715
23.464323,-36.139103,11.714715
23.464323,-47.616246,13.112108
23.464323,-46.116246,13.112108
23.464323,-44.616246,13.112108
23.464323,-43.116246,13.112108
23.464323,-41.616246,13.112108
23.464323,-40.116246,13.112108
23.464323,-38.616246,13.112108
23.464323,-37.116246,13.112108
23.464323,-48.518317,14.509502
23.464323,-47.018317,14.509502
23.464323,-45.518317,14.509502
23.464323,-44.018317,14.509502
23.464323,-42.518317,14.509502
23.464323,-41.018317,14.509502
23.464323,-39.518317,14.509502
23.464323,-49.113040,15.906895
23.464323,-47.613040,15.906895
23.464323,-46.113040,15.906895
23.464323,-44.613040,15.906895
23.464323,-43.113040,15.906895
23.464323,-41.613040,15.906895
23.464323,-49.106012,17.304288
23.464323,-47.606012,17.304288
23.464323,-46.106012,17.304288
23.464323,-44.606012,17.304288
23.464323,-43.106012,17.304288
23.464323,-48.140702,18.701682
23.464323,-46.640702,18.701682
23.464323,-45.140702,18.701682
23.464323,-43.640702,18.701682
23.464323,-45.798451,20.099075
23.464323,-44.298451,20.099075
22.157949,-44.137806,0.533512
22.157949,-42.637806,0.533512
22.157949,-41.137806,0.533512
22.157949,-39.637806,0.533512
22.157949,-38.137806,0.533512
22.157949,-36.637806,0.533512
22.157949,-35.137806,0.533512
22.157949,-44.699384,1.925104
22.157949,-43.199384,1.925104
22.157949,-41.699384,1.925104
22.157949,-40.199384,1.925104
22.157949,-38.699384,1.925104
22.157949,-37.199384,1.925104
22.157949,-35.699384,1.925104
22.157949,-34.199384,1.925104
22.157949,-44.789852,3.316697
22.157949,-43.289852,3.316697
22.157949,-41.789852,3.316697
22.157949,-40.289852,3.316697
22.157949,-38.789852,3.316697
22.157949,-37.289852,3.316697
22.157949,-35.789852,3.316697
22.157949,-34.289852,3.316697
22.157949,-32.789852,3.316697
22.157949,-44.672277,4.708290
22.157949,-43.172277,4.708290
22.157949,-41.672277,4.708290
22.157949,-40.172277,4.708290
22.157949,-38.672277,4.708290
22.157949,-37.172277,4.708290
22.157949,-35.672277,4.708290
22.157949,-34.172277,4.708290
22.157949,-32.672277,4.708290
22.157949,-44.548627,6.099882
22.157949,-43.048627,6.099882
22.157949,-41.548627,6.099882
22.157949,-40.048627,6.099882
22.157949,-38.548627,6.099882
22.157949,-37.048627,6.099882
22.157949,-35.548627,6.099882
22.157949,-34.048627,6.099882
22.157949,-32.548627,6.099882
22.157949,-44.559766,7.491475
22.157949,-43.059766,7.491475
22.157949,-41.559766,7.491475
22.157949,-40.059766,7.491475
22.157949,-38.559766,7.491475
22.157949,-37.059766,7.491475
22.157949,-35.559766,7.491475
22.157949,-34.059766,7.491475
22.157949,-32.559766,7.491475
22.157949,-44.785455,8.883067
22.157949,-43.285455,8.883067
22.157949,-41.785455,8.883067
22.157949,-40.285455,8.883067
22.157949,-38.785455,8.883067
22.157949,-37.285455,8.883067
22.157949,-35.785455,8.883067
22.157949,-34.285455,8.883067
22.157949,-45.244354,10.274660
22.157949,-43.744354,10.274660
22.157949,-42.244354,10.274660
22.157949,-40.744354,10.274660
22.157949,-39.244354,10.274660
22.157949,-37.744354,10.274660
22.157949,-36.244354,10.274660
22.157949,-34.744354,10.274660
22.157949,-45.894019,11.666253
22.157949,-44.394019,11.666253
22.157949,-42.894019,11.666253
22.157949,-41.394019,11.666253
22.157949,-39.894019,11.666253
22.157949,-38.394019,11.666253
22.157949,-36.894019,11.666253
22.157949,-35.394019,11.666253
22.157949,-46.630905,13.057845
22.157949,-45.130905,13.057845
22.157949,-43.630905,13.057845
22.157949,-42.130905,13.057845
22.157949,-40.630905,13.057845
22.157949,-39.130905,13.057845
22.157949,-37.630905,13.057845
22.157949,-47.290362,14.449438
22.157949,-45.790362,14.449438
22.157949,-44.290362,14.449438
22.157949,-42.790362,14.449438
22.157949,-41.290362,14.449438
22.157949,-39.790362,14.449438
22.157949,-38.290362,14.449438
22.157949,-47.646640,15.841030
22.157949,-46.146640,15.841030
22.157949,-44.646640,15.841030
22.157949,-43.146640,15.841030
22.157949,-41.646640,15.841030
22.157949,-40.146640,15.841030
22.157949,-47.412886,17.232623
22.157949,-45.912886,17.232623
22.157949,-44.412886,17.232623
22.157949,-42.912886,17.232623
22.157949,-41.412886,17.232623
22.157949,-46.241143,18.624216
22.157949,-44.741143,18.624216
22.157949,-43.241143,18.624216
22.157949,-41.741143,18.624216
22.157949,-43.722352,20.015808
22.157949,-42.222352,20.015808
20.343542,-45.012370,0.525154
20.343542,-43.512370,0.525154
20.343542,-42.012370,0.525154
20.343542,-40.512370,0.525154
20.343542,-39.012370,0.525154
20.343542,-37.512370,0.525154
20.343542,-36.012370,0.525154
20.343542,-45.375117,1.859456
20.343542,-43.875117,1.859456
20.343542,-42.375117,1.859456
20.343542,-40.875117,1.859456
20.343542,-39.375117,1.859456
20.343542,-37.875117,1.859456
20.343542,-36.375117,1.859456
20.343542,-34.875117,1.859456
20.343542,-45.262001,3.193758
20.343542,-43.762001,3.193758
20.343542,-42.262001,3.193758
20.343542,-40.762001,3.193758
20.343542,-39.262001,3.193758
20.343542,-37.762001,3.193758
20.343542,-36.262001,3.193758
20.343542,-34.762001,3.193758
20.343542,-44.909957,4.528060
20.343542,-43.409957,4.528060
20.343542,-41.909957,4.528060
20.343542,-40.409957,4.528060
20.343542,-38.909957,4.528060
20.343542,-37.409957,4.528060
20.343542,-35.909957,4.528060
20.343542,-34.409957,4.528060
20.343542,-44.504278,5.862362
20.343542,-43.004278,5.862362
20.343542,-41.504278,5.862362
20.343542,-40.004278,5.862362
20.343542,-38.504278,5.862362
20.343542,-37.004278,5.862362
20.343542,-35.504278,5.862362
20.343542,-34.004278,5.862362
20.343542,-44.178609,7.196664
20.343542,-42.678609,7.196664
20.343542,-41.178609,7.196664
20.343542,-39.678609,7.196664
20.343542,-38.178609,7.196664
20.343542,-36.678609,7.196664
20.343542,-35.178609,7.196664
20.343542,-33.678609,7.196664
20.343542,-44.014952,8.530966
20.343542,-42.514952,8.530966
20.343542,-41.014952,8.530966
20.343542,-39.514952,8.530966
20.343542,-38.014952,8.530966
20.343542,-36.514952,8.530966
20.343542,-35.014952,8.530966
20.343542,-33.514952,8.530966
20.343542,-44.043663,9.865268
20.343542,-42.543663,9.865268
20.343542,-41.043663,9.865268
20.343542,-39.543663,9.865268
20.343542,-38.043663,9.865268
20.343542,-36.543663,9.865268
20.343542,-35.043663,9.865268
20.343542,-33.543663,9.865268
20.343542,-44.243453,11.199570
20.343542,-42.743453,11.199570
20.343542,-41.243453,11.199570
20.343542,-39.743453,11.199570
20.343542,-38.243453,11.199570
20.343542,-36.743453,11.199570
20.343542,-35.243453,11.199570
20.343542,-44.541390,12.533872
20.343542,-43.041390,12.533872
20.343542,-41.541390,12.533872
20.343542,-40.041390,12.533872
20.343542,-38.541390,12.533872
20.343542,-37.041390,12.533872
20.343542,-35.541390,12.533872
20.343542,-44.812895,13.868174
20.343542,-43.312895,13.868174
20.343542,-41.812895,13.868174
20.343542,-40.312895,13.868174
20.343542,-38.812895,13.868174
20.343542,-37.312895,13.868174
20.343542,-44.881744,15.202476
20.343542,-43.381744,15.202476
20.343542,-41.881744,15.202476
20.343542,-40.381744,15.202476
20.343542,-38.881744,15.202476
20.343542,-44.520070,16.536778
20.343542,-43.020070,16.536778
20.343542,-41.520070,16.536778
20.343542,-40.020070,16.536778
20.343542,-43.448360,17.871080
20.343542,-41.948360,17.871080
20.343542,-40.448360,17.871080
20.343542,-41.335456,19.205382
18.311405,-45.847483,0.511540
18.311405,-44.347483,0.511540
18.311405,-42.847483,0.511540
18.311405,-41.347483,0.511540
18.311405,-39.847483,0.511540
18.311405,-38.347483,0.511540
18.311405,-36.847483,0.511540
18.311405,-45.950434,1.703581
18.311405,-44.450434,1.703581
18.311405,-42.950434,1.703581
18.311405,-41.450434,1.703581
18.311405,-39.950434,1.703581
18.311405,-38.450434,1.703581
18.311405,-36.950434,1.703581
18.311405,-45.616762,2.895622
18.311405,-44.116762,2.895622
18.311405,-42.616762,2.895622
18.311405,-41.116762,2.895622
18.311405,-39.616762,2.895622
18.311405,-38.116762,2.895622
18.311405,-36.616762,2.895622
18.311405,-35.116762,2.895622
18.311405,-45.022784,4.087663
18.311405,-43.522784,4.087663
18.311405,-42.022784,4.087663
18.311405,-40.522784,4.087663
18.311405,-39.022784,4.087663
18.311405,-37.522784,4.087663
18.311405,-36.022784,4.087663
18.311405,-34.522784,4.087663
18.311405,-44.311920,5.279704
18.311405,-42.811920,5.279704
18.311405,-41.311920,5.279704
18.311405,-39.811920,5.279704
18.311405,-38.311920,5.279704
18.311405,-36.811920,5.279704
18.311405,-35.311920,5.279704
18.311405,-43.594691,6.471745
18.311405,-42.094691,6.471745
18.311405,-40.594691,6.471745
18.311405,-39.094691,6.471745
18.311405,-37.594691,6.471745
18.311405,-36.094691,6.471745
18.311405,-34.594691,6.471745
18.311405,-42.948718,7.663786
18.311405,-41.448718,7.663786
18.311405,-39.948718,7.663786
18.311405,-38.448718,7.663786
18.311405,-36.948718,7.663786
18.311405,-35.448718,7.663786
18.311405,-33.948718,7.663786
18.311405,-42.418727,8.855828
18.311405,-40.918727,8.855828
18.311405,-39.418727,8.855828
18.311405,-37.918727,8.855828
18.311405,-36.418727,8.855828
18.311405,-34.918727,8.855828
18.311405,-42.016543,10.047869
18.311405,-40.516543,10.047869
18.311405,-39.016543,10.047869
18.311405,-37.516543,10.047869
18.311405,-36.016543,10.047869
18.311405,-34.516543,10.047869
18.311405,-41.721091,11.239910
18.311405,-40.221091,11.239910
18.311405,-38.721091,11.239910
18.311405,-37.221091,11.239910
18.311405,-35.721091,11.239910
18.311405,-41.478402,12.431951
18.311405,-39.978402,12.431951
18.311405,-38.478402,12.431951
18.311405,-36.978402,12.431951
18.311405,-41.201605,13.623992
18.311405,-39.701605,13.623992
18.311405,-38.201605,13.623992
18.311405,-36.701605,13.623992
18.311405,-40.770932,14.816033
18.311405,-39.270932,14.816033
18.311405,-37.770932,14.816033
18.311405,-40.033715,16.008074
18.311405,-38.533715,16.008074
18.311405,-38.804390,17.200115
17.150185,-46.197545,0.504279
17.150185,-44.697545,0.504279
17.150185,-43.197545,0.504279
17.150185,-41.697545,0.504279
17.150185,-40.197545,0.504279
17.150185,-38.697545,0.504279
17.150185,-46.155729,1.574317
17.150185,-44.655729,1.574317
17.150185,-43.155729,1.574317
17.150185,-41.655729,1.574317
17.150185,-40.155729,1.574317
17.150185,-38.655729,1.574317
17.150185,-37.155729,1.574317
17.150185,-45.728296,2.644355
17.150185,-44.228296,2.644355
17.150185,-42.728296,2.644355
17.150185,-41.228296,2.644355
17.150185,-39.728296,2.644355
17.150185,-38.228296,2.644355
17.150185,-36.728296,2.644355
17.150185,-45.047034,3.714394
17.150185,-43.547034,3.714394
17.150185,-42.047034,3.714394
17.150185,-40.547034,3.714394
17.150185,-39.047034,3.714394
17.150185,-37.547034,3.714394
17.150185,-36.047034,3.714394
17.150185,-44.222374,4.784432
17.150185,-42.722374,4.784432
17.150185,-41.222374,4.784432
17.150185,-39.722374,4.784432
17.150185,-38.222374,4.784432
17.150185,-36.722374,4.784432
17.150185,-35.222374,4.784432
17.150185,-43.343382,5.854471
17.150185,-41.843382,5.854471
17.150185,-40.343382,5.854471
17.150185,-38.843382,5.854471
17.150185,-37.343382,5.854471
17.150185,-35.843382,5.854471
17.150185,-42.477767,6.924509
17.150185,-40.977767,6.924509
17.150185,-39.477767,6.924509
17.150185,-37.977767,6.924509
17.150185,-36.477767,6.924509
17.150185,-34.977767,6.924509
17.150185,-41.671876,7.994548
17.150185,-40.171876,7.994548
17.150185,-38.671876,7.994548
17.150185,-37.171876,7.994548
17.150185,-35.671876,7.994548
17.150185,-40.950697,9.064586
17.150185,-39.450697,9.064586
17.150185,-37.950697,9.064586
17.150185,-36.450697,9.064586
17.150185,-34.950697,9.064586
17.150185,-40.317857,10.134625
17.150185,-38.817857,10.134625
17.150185,-37.317857,10.134625
17.150185,-35.817857,10.134625
17.150185,-39.755621,11.204663
17.150185,-38.255621,11.204663
17.150185,-36.755621,11.204663
17.150185,-39.224896,12.274701
17.150185,-37.724896,12.274701
17.150185,-36.224896,12.274701
17.150185,-38.665228,13.344740
17.150185,-37.165228,13.344740
17.150185,-37.994802,14.414778
17.150185,-37.521165,15.484817
15.988964,-46.412326,0.499612
15.988964,-44.912326,0.499612
15.988964,-43.412326,0.499612
15.988964,-41.912326,0.499612
15.988964,-40.412326,0.499612
15.988964,-46.247617,1.416490
15.988964,-44.747617,1.416490
15.988964,-43.247617,1.416490
15.988964,-41.747617,1.416490
15.988964,-40.247617,1.416490
15.988964,-38.747617,1.416490
15.988964,-45.770715,2.333368
15.988964,-44.270715,2.333368
15.988964,-42.770715,2.333368
15.988964,-41.270715,2.333368
15.988964,-39.770715,2.333368
15.988964,-38.270715,2.333368
15.988964,-45.067763,3.250245
15.988964,-43.567763,3.250245
15.988964,-42.067763,3.250245
15.988964,-40.567763,3.250245
15.988964,-39.067763,3.250245
15.988964,-37.567763,3.250245
15.988964,-44.213391,4.167123
15.988964,-42.713391,4.167123
15.988964,-41.213391,4.167123
15.988964,-39.713391,4.167123
15.988964,-38.213391,4.167123
15.988964,-36.713391,4.167123
15.988964,-43.270712,5.084001
15.988964,-41.770712,5.084001
15.988964,-40.270712,5.084001
15.988964,-38.770712,5.084001
15.988964,-37.270712,5.084001
15.988964,-42.291327,6.000879
15.988964,-40.791327,6.000879
15.988964,-39.291327,6.000879
15.988964,-37.791327,6.000879
15.988964,-36.291327,6.000879
15.988964,-41.315319,6.917757
15.988964,-39.815319,6.917757
15.988964,-38.315319,6.917757
15.988964,-36.815319,6.917757
15.988964,-40.371258,7.834634
15.988964,-38.871258,7.834634
15.988964,-37.371258,7.834634
15.988964,-35.871258,7.834634
15.988964,-39.476200,8.751512
15.988964,-37.976200,8.751512
15.988964,-36.476200,8.751512
15.988964,-38.635685,9.668390
15.988964,-37.135685,9.668390
15.988964,-35.635685,9.668390
15.988964,-37.843737,10.585268
15.988964,-36.343737,10.585268
15.988964,-37.082868,11.502145
15.988964,-36.482981,12.419023
